ncols        175
nrows        32
xllcorner    780860
yllcorner    189660
cellsize     10.000000000000
NODATA_value  -999
2500.7001953125 2499.386962890625 2499.201416015625 2499.017822265625 2498.114501953125 2498.424560546875 2498.341064453125 2497.903564453125 2496.941162109375 2496.129150390625 2495.189208984375 2494.027099609375 2493.32177734375 2492.732666015625 2491.774658203125 2490.737060546875 2488.493408203125 2484.992919921875 2480.544921875 2475.85107421875 2468.517578125 2460.293701171875 2453.44775390625 2448.4970703125 2443.678955078125 2440.053955078125 2436.62255859375 2435.41357421875 2435.6875 2435.353759765625 2434.880126953125 2434.51220703125 2433.38427734375 2432.97705078125 2432.961669921875 2433.9453125 2434.970703125 2435.94482421875 2436.496826171875 2436.556640625 2436.11865234375 2435.183837890625 2434.05419921875 2432.558837890625 2430.683837890625 2428.5302734375 2425.4033203125 2422.5966796875 2419.84814453125 2416.697509765625 2413.135498046875 2409.7763671875 2407.65576171875 2405.914794921875 2405.1171875 2404.072021484375 2401.7041015625 2399.58349609375 2397.5791015625 2396.208740234375 2395.50146484375 2395.59228515625 2395.219970703125 2395.444580078125 2396.054931640625 2396.910888671875 2397.513427734375 2398.483154296875 2400.008056640625 2399.3486328125 2398.1630859375 2398.121826171875 2397.06640625 2397.808349609375 2399.442626953125 2400.6591796875 2400.923583984375 2398.32275390625 2397.65673828125 2397.712646484375 2397.683349609375 2398.747802734375 2399.42431640625 2399.616455078125 2400.343017578125 2401.302978515625 2401.76416015625 2402.5146484375 2403.08251953125 2403.015380859375 2402.353515625 2402.106201171875 2401.27880859375 2400.438232421875 2399.6201171875 2398.690185546875 2398.349365234375 2398.544189453125 2398.5078125 2399.279296875 2398.789306640625 2399.588623046875 2400.105224609375 2400.39208984375 2400.81787109375 2401.468505859375 2401.81884765625 2401.525634765625 2401.14501953125 2399.96630859375 2398.472900390625 2396.888427734375 2394.884521484375 2393.213623046875 2390.61865234375 2388.214111328125 2385.667724609375 2382.919921875 2380.682373046875 2378.31005859375 2375.25341796875 2372.675537109375 2369.947509765625 2368.3427734375 2367.0654296875 2365.299072265625 2362.9091796875 2359.828125 2356.2900390625 2352.748291015625 2348.816650390625 2344.198974609375 2339.62548828125 2335.768310546875 2331.475830078125 2326.7021484375 2321.456298828125 2317.266845703125 2312.88232421875 2307.96142578125 2303.517822265625 2298.34130859375 2293.941162109375 2289.745849609375 2286.8359375 2284.8837890625 2281.98095703125 2279.103271484375 2276.109375 2272.767578125 2270.094482421875 2267.14501953125 2264.3232421875 2261.427001953125 2257.922607421875 2254.486572265625 2250.9560546875 2246.603515625 2243.398193359375 2240.2353515625 2237.4443359375 2234.005126953125 2230.260498046875 2224.1953125 2216.764404296875 2208.391845703125 2199.552001953125 2191.599365234375 2184.865478515625 2180.616455078125 2175.767822265625 2171.32080078125 2163.772705078125 2156.927978515625 2148.9736328125
2499.197998046875 2497.93212890625 2496.47802734375 2495.874755859375 2495.0869140625 2494.33251953125 2493.993408203125 2493.92236328125 2493.54345703125 2493.104736328125 2492.73486328125 2492.511474609375 2492.37841796875 2491.748046875 2490.921630859375 2489.77490234375 2487.337646484375 2482.7353515625 2478.52978515625 2473.343505859375 2465.68798828125 2457.757568359375 2451.48583984375 2446.3671875 2441.435791015625 2437.7919921875 2435.09033203125 2434.29736328125 2434.43603515625 2434.495849609375 2433.787109375 2433.177978515625 2432.34033203125 2432.182861328125 2432.060791015625 2432.703125 2433.432861328125 2433.524658203125 2434.256103515625 2434.408935546875 2433.833251953125 2432.87646484375 2431.87841796875 2430.39501953125 2428.147216796875 2425.62255859375 2423.271240234375 2420.705810546875 2416.961181640625 2414.02294921875 2410.7939453125 2407.87841796875 2405.7666015625 2403.63232421875 2402.730224609375 2401.552734375 2399.67578125 2398.03955078125 2395.712158203125 2394.45361328125 2393.675048828125 2392.606201171875 2392.070556640625 2391.64501953125 2391.889404296875 2392.093017578125 2391.8349609375 2393.127685546875 2394.016845703125 2393.42919921875 2392.8349609375 2391.295654296875 2391.87744140625 2392.681396484375 2394.78515625 2395.558837890625 2394.9873046875 2392.20166015625 2391.1630859375 2392.226806640625 2392.30029296875 2392.765380859375 2393.592529296875 2394.07958984375 2394.919921875 2395.15576171875 2395.680419921875 2396.287109375 2397.079833984375 2397.642822265625 2397.53125 2397.440673828125 2395.865478515625 2395.30078125 2394.591796875 2394.2529296875 2394.15380859375 2393.2099609375 2392.6123046875 2392.65185546875 2393.0048828125 2392.679443359375 2393.145751953125 2393.933349609375 2394.0302734375 2395.108642578125 2395.61669921875 2395.47509765625 2395.12939453125 2394.049072265625 2393.573974609375 2391.613037109375 2390.052001953125 2387.732666015625 2386.26513671875 2384.48681640625 2381.9296875 2379.323974609375 2377.403564453125 2375.58642578125 2372.739990234375 2371.087890625 2369.04931640625 2367.771728515625 2366.552490234375 2364.670654296875 2362.444580078125 2359.565185546875 2356.01416015625 2351.9970703125 2348.593994140625 2344.3095703125 2339.37548828125 2336.234619140625 2332.33056640625 2327.576171875 2322.783935546875 2318.047607421875 2313.510986328125 2308.93017578125 2304.233642578125 2298.859619140625 2294.988037109375 2291.447265625 2289.28076171875 2286.452880859375 2283.309814453125 2280.89111328125 2277.07080078125 2273.50048828125 2270.0830078125 2267.0537109375 2263.527587890625 2260.64501953125 2257.738037109375 2253.938720703125 2250.80078125 2247.38037109375 2244.0556640625 2240.948974609375 2237.8310546875 2234.3310546875 2230.896728515625 2226.113037109375 2219.3349609375 2211.38330078125 2204.04296875 2196.411376953125 2191.64453125 2186.94775390625 2182.552978515625 2173.987548828125 2165.56787109375 2158.42529296875 2147.81640625
2496.894775390625 2496.0556640625 2494.70361328125 2493.450439453125 2492.488037109375 2491.15185546875 2490.773193359375 2490.504150390625 2490.15380859375 2489.8193359375 2489.584716796875 2490.22119140625 2490.3388671875 2490.487060546875 2490.16015625 2488.661376953125 2485.582275390625 2481.443115234375 2476.455322265625 2470.9638671875 2464.01904296875 2455.51806640625 2450.303955078125 2445.2109375 2440.236572265625 2436.58447265625 2434.158203125 2433.10400390625 2433.26806640625 2433.087158203125 2433.225830078125 2432.690673828125 2431.901611328125 2431.364990234375 2431.52978515625 2431.944091796875 2432.267333984375 2432.293701171875 2432.04150390625 2431.6513671875 2431.279052734375 2430.410888671875 2429.109130859375 2427.6552734375 2425.82763671875 2423.369140625 2420.8994140625 2417.995361328125 2414.589599609375 2411.5634765625 2408.6298828125 2405.9716796875 2403.55224609375 2402.2421875 2400.794921875 2399.38037109375 2398.078369140625 2396.60791015625 2394.8623046875 2393.33056640625 2391.91455078125 2390.95947265625 2390.153076171875 2389.470458984375 2388.850830078125 2388.531494140625 2388.06689453125 2388.89892578125 2389.2041015625 2388.434326171875 2388.031982421875 2387.215087890625 2387.20947265625 2388.708251953125 2390.502685546875 2391.379638671875 2389.969482421875 2386.32958984375 2386.040283203125 2387.22412109375 2386.683349609375 2387.148681640625 2387.594482421875 2388.531982421875 2388.9794921875 2389.560302734375 2389.629638671875 2390.391845703125 2391.731201171875 2391.947265625 2391.40185546875 2390.885009765625 2389.843994140625 2389.355712890625 2389.438720703125 2388.954833984375 2388.16162109375 2387.75439453125 2387.1884765625 2387.219482421875 2386.6513671875 2386.5673828125 2386.36181640625 2387.19677734375 2387.1298828125 2388.120361328125 2387.889892578125 2388.007568359375 2388.39453125 2387.99169921875 2387.436767578125 2385.61279296875 2384.464599609375 2382.57080078125 2381.66552734375 2379.034423828125 2376.4501953125 2374.1767578125 2372.963623046875 2371.1240234375 2369.340087890625 2367.69873046875 2366.637939453125 2365.447998046875 2364.30419921875 2362.947021484375 2361.04443359375 2358.57763671875 2355.09423828125 2351.329833984375 2347.924560546875 2344.206787109375 2339.803955078125 2336.519775390625 2332.576171875 2328.257568359375 2323.33984375 2318.27783203125 2313.5732421875 2308.908447265625 2304.186767578125 2299.217529296875 2296.43896484375 2294.2255859375 2291.234130859375 2287.80126953125 2284.7138671875 2281.57177734375 2277.938720703125 2274.8720703125 2271.62841796875 2268.068603515625 2265.10498046875 2261.75146484375 2258.738525390625 2255.972900390625 2252.811279296875 2249.643798828125 2245.99365234375 2242.566162109375 2238.65673828125 2234.943359375 2230.939208984375 2226.814697265625 2221.090087890625 2214.846923828125 2207.19140625 2201.5712890625 2197.682373046875 2191.04296875 2183.4453125 2173.169921875 2165.131103515625 2156.616455078125 2147.4765625
2493.515869140625 2493.315673828125 2492.500244140625 2491.45703125 2490.0302734375 2488.7470703125 2487.75244140625 2487.3203125 2486.454833984375 2486.367919921875 2486.331787109375 2486.571533203125 2487.056884765625 2486.89599609375 2487.45947265625 2487.545654296875 2485.515625 2482.0400390625 2476.28515625 2470.455078125 2462.880859375 2456.72216796875 2450.7373046875 2444.1396484375 2439.108642578125 2435.8037109375 2433.52490234375 2432.390625 2432.0673828125 2431.885009765625 2432.220458984375 2431.785888671875 2431.400390625 2430.841552734375 2431.1708984375 2430.8642578125 2431.179443359375 2431.003662109375 2430.5869140625 2429.61474609375 2428.81640625 2427.6376953125 2426.67333984375 2424.705322265625 2423.53662109375 2420.66162109375 2418.163818359375 2415.241455078125 2412.188720703125 2409.302001953125 2406.472900390625 2404.024658203125 2401.6123046875 2400.015869140625 2398.5966796875 2397.507568359375 2396.535400390625 2395.34716796875 2393.972412109375 2392.655029296875 2390.76708984375 2389.53955078125 2388.582763671875 2387.44482421875 2386.583251953125 2386.0439453125 2385.41162109375 2384.983154296875 2384.542724609375 2383.87158203125 2383.83642578125 2383.1455078125 2382.887939453125 2384.40576171875 2386.044921875 2386.863037109375 2384.58935546875 2381.03955078125 2381.400390625 2382.108642578125 2380.945556640625 2381.1025390625 2381.85693359375 2381.851318359375 2383.61279296875 2384.117431640625 2384.380615234375 2384.890625 2385.464111328125 2385.634033203125 2385.637451171875 2385.44482421875 2384.257568359375 2383.43017578125 2383.185302734375 2382.164794921875 2381.341064453125 2379.955078125 2379.259765625 2380.01513671875 2379.747314453125 2379.287109375 2379.676025390625 2379.951416015625 2380.044677734375 2380.812744140625 2381.473388671875 2381.416748046875 2381.90283203125 2382.11669921875 2381.00439453125 2379.94580078125 2378.775146484375 2376.810791015625 2375.2236328125 2373.27978515625 2371.641845703125 2369.336669921875 2367.763916015625 2365.97998046875 2364.580322265625 2363.594482421875 2362.58837890625 2361.851318359375 2360.8984375 2359.775390625 2358.6279296875 2357.030517578125 2354.99462890625 2352.384521484375 2349.220458984375 2345.01123046875 2341.051025390625 2336.8076171875 2333.24658203125 2329.3291015625 2324.179443359375 2318.50390625 2313.215087890625 2308.485595703125 2304.491943359375 2301.75 2300.402099609375 2296.429443359375 2293.152099609375 2289.75146484375 2286.555908203125 2283.575439453125 2280.06494140625 2277.12890625 2273.759033203125 2270.384765625 2266.265625 2263.416015625 2261.095703125 2257.896484375 2253.75537109375 2249.476318359375 2245.922607421875 2242.57861328125 2239.176025390625 2234.632080078125 2229.607421875 2223.4482421875 2217.60986328125 2213.552734375 2208.525390625 2205.020751953125 2195.874755859375 2188.229248046875 2182.1982421875 2171.059326171875 2162.848388671875 2154.19384765625 2145.673583984375
2489.95166015625 2490.14501953125 2490.0439453125 2489.021728515625 2487.861328125 2486.3359375 2484.985595703125 2484.318115234375 2483.330078125 2482.604736328125 2482.765380859375 2483.034423828125 2482.67626953125 2483.283935546875 2483.858642578125 2484.5654296875 2484.043212890625 2481.7578125 2476.96240234375 2471.31689453125 2464.097412109375 2457.673583984375 2451.42333984375 2445.870849609375 2439.010986328125 2436.362548828125 2433.3515625 2431.59033203125 2431.240234375 2431.207275390625 2431.14501953125 2431.0263671875 2430.453857421875 2430.412841796875 2430.555419921875 2430.2216796875 2429.697021484375 2429.518310546875 2429.064697265625 2428.359375 2427.055419921875 2425.6494140625 2424.20166015625 2422.767578125 2420.540283203125 2417.97119140625 2415.58251953125 2413.27685546875 2409.884765625 2407.04150390625 2404.454833984375 2402.12060546875 2399.729736328125 2398.052490234375 2397.00146484375 2395.95703125 2395.018310546875 2394.50634765625 2392.9697265625 2391.848388671875 2390.201904296875 2388.62841796875 2387.06982421875 2385.775634765625 2384.90283203125 2384.164306640625 2383.662353515625 2382.811279296875 2381.55908203125 2380.828857421875 2380.10107421875 2379.606201171875 2379.6708984375 2380.24658203125 2382.139892578125 2382.3916015625 2379.77978515625 2376.784912109375 2376.41845703125 2377.051025390625 2375.408203125 2376.072021484375 2376.0263671875 2376.598388671875 2378.05224609375 2378.738037109375 2379.18017578125 2379.46240234375 2380.239990234375 2380.17041015625 2379.60302734375 2379.169921875 2378.90234375 2377.937255859375 2376.642578125 2375.623779296875 2375.046875 2373.79150390625 2373.74560546875 2373.37255859375 2372.941650390625 2373.23486328125 2373.11962890625 2373.165771484375 2373.885986328125 2374.11328125 2375.004150390625 2375.538818359375 2375.646240234375 2375.8759765625 2375.1845703125 2373.619384765625 2372.834716796875 2371.210693359375 2369.797119140625 2367.686767578125 2365.443359375 2364.2490234375 2362.599365234375 2360.71875 2359.442626953125 2358.955078125 2358.344970703125 2357.640625 2357.234375 2356.982177734375 2356.208740234375 2355.53564453125 2354.23046875 2352.276611328125 2350.044921875 2346.788818359375 2343.380615234375 2338.45068359375 2333.8193359375 2329.86279296875 2324.530517578125 2318.965576171875 2315.389892578125 2311.40283203125 2308.502197265625 2305.997802734375 2302.18603515625 2297.77880859375 2294.900634765625 2292.236328125 2288.78076171875 2285.63916015625 2282.186767578125 2279.30859375 2275.58544921875 2271.465576171875 2267.801513671875 2265.50244140625 2262.150146484375 2257.302001953125 2252.15673828125 2247.19970703125 2242.74560546875 2239.084228515625 2236.0419921875 2232.46875 2226.904296875 2220.13427734375 2213.45703125 2207.638427734375 2201.630615234375 2197.29931640625 2192.22607421875 2184.569580078125 2176.763671875 2167.490966796875 2160.98974609375 2153.1123046875 2143.92431640625
2488.757080078125 2487.0849609375 2487.48486328125 2486.353759765625 2484.968017578125 2483.110595703125 2482.104736328125 2481.262451171875 2480.263671875 2479.231201171875 2478.688720703125 2479.018798828125 2478.051025390625 2478.544677734375 2479.1943359375 2480.05126953125 2480.476806640625 2479.6904296875 2476.40234375 2471.931640625 2465.61474609375 2458.722412109375 2452.694580078125 2446.88427734375 2440.98974609375 2436.742431640625 2434.070556640625 2431.864990234375 2430.468505859375 2430.12060546875 2430.38818359375 2430.208251953125 2429.676025390625 2429.800048828125 2430.3828125 2429.6015625 2428.463623046875 2427.76123046875 2427.0166015625 2425.73681640625 2424.648681640625 2423.18408203125 2422.298583984375 2420.6162109375 2418.558837890625 2416.177490234375 2413.81103515625 2410.983154296875 2407.96923828125 2405.2265625 2402.50830078125 2400.255126953125 2398.352783203125 2396.633544921875 2395.489501953125 2394.264892578125 2393.781982421875 2392.9873046875 2391.99755859375 2390.822998046875 2389.31396484375 2387.8330078125 2386.09765625 2384.899169921875 2383.78173828125 2382.5439453125 2381.962890625 2381.236328125 2380.0283203125 2378.586669921875 2377.325439453125 2376.453369140625 2375.651123046875 2376.5419921875 2378.45263671875 2378.312255859375 2375.270751953125 2373.11865234375 2372.787353515625 2373.454345703125 2370.67919921875 2371.302490234375 2370.743408203125 2372.081298828125 2373.12158203125 2373.15478515625 2373.219482421875 2373.76025390625 2374.330078125 2374.4658203125 2373.785400390625 2372.966064453125 2372.851806640625 2372.16064453125 2371.0859375 2369.509765625 2368.804931640625 2367.270751953125 2367.084228515625 2366.511474609375 2366.101806640625 2366.625732421875 2366.3369140625 2366.905517578125 2367.3193359375 2366.952392578125 2367.871337890625 2368.91064453125 2369.8779296875 2369.457275390625 2369.080810546875 2368.546875 2367.507568359375 2365.19384765625 2363.610107421875 2361.640380859375 2360.137939453125 2358.802001953125 2357.152099609375 2355.646728515625 2355.671142578125 2354.769775390625 2353.87744140625 2353.77001953125 2353.462646484375 2353.117919921875 2352.926025390625 2352.765869140625 2351.627685546875 2350.61181640625 2349.444091796875 2347.1201171875 2344.03759765625 2340.897216796875 2335.965576171875 2331.64453125 2326.595947265625 2322.987060546875 2319.718017578125 2316.11767578125 2311.8359375 2307.854248046875 2303.6943359375 2299.070068359375 2296.3603515625 2293.955322265625 2290.889404296875 2287.52392578125 2283.89990234375 2281.03662109375 2277.410888671875 2273.281494140625 2270.346435546875 2266.20458984375 2261.40625 2255.3623046875 2250.456298828125 2245.263671875 2241.607421875 2237.556640625 2234.17822265625 2230.055908203125 2225.343994140625 2218.2255859375 2209.414306640625 2201.950927734375 2195.93115234375 2190.61376953125 2185.56396484375 2180.342041015625 2176.343505859375 2166.8154296875 2158.280517578125 2149.35595703125 2140.774169921875
2489.080810546875 2485.58154296875 2484.85888671875 2483.44580078125 2481.396728515625 2480.216796875 2478.738525390625 2478.2734375 2477.479736328125 2476.303466796875 2475.190185546875 2474.755859375 2473.907470703125 2474.731689453125 2474.802734375 2474.955810546875 2475.6279296875 2475.8115234375 2475.65625 2472.515625 2466.78466796875 2461.1201171875 2454.18505859375 2448.326416015625 2443.20068359375 2437.9423828125 2434.807373046875 2432.372802734375 2430.873046875 2430.1875 2429.81298828125 2429.384033203125 2428.8017578125 2429.312744140625 2429.615234375 2429.27490234375 2427.718994140625 2426.22802734375 2425.254150390625 2424.079833984375 2422.41162109375 2421.082275390625 2419.96337890625 2418.57568359375 2416.741943359375 2414.4716796875 2412.233154296875 2409.632080078125 2406.759765625 2404.35595703125 2401.537353515625 2399.32177734375 2397.144775390625 2395.72802734375 2393.92919921875 2392.53466796875 2391.947998046875 2391.345947265625 2390.485107421875 2389.58447265625 2388.3515625 2386.991943359375 2385.52734375 2384.28369140625 2382.60107421875 2381.33837890625 2380.318115234375 2379.5185546875 2378.53271484375 2376.72216796875 2375.3349609375 2374.104736328125 2373.33935546875 2374.10693359375 2375.28369140625 2374.333740234375 2371.692626953125 2369.9521484375 2368.84423828125 2369.28271484375 2367.37353515625 2367.365966796875 2366.764404296875 2367.994384765625 2368.489501953125 2367.10693359375 2367.015380859375 2368.467529296875 2369.12744140625 2368.637451171875 2367.69873046875 2367.918212890625 2367.8544921875 2366.52587890625 2364.772705078125 2363.83349609375 2362.625244140625 2361.23291015625 2361.25537109375 2360.248291015625 2360.416015625 2360.162109375 2360.05517578125 2360.466064453125 2360.431640625 2360.718994140625 2361.82275390625 2362.659423828125 2364.182861328125 2364.90087890625 2364.70849609375 2364.15771484375 2362.85009765625 2360.9833984375 2359.169189453125 2357.36376953125 2356.26318359375 2354.76513671875 2353.4384765625 2352.776123046875 2351.72509765625 2351.18603515625 2350.14990234375 2349.411376953125 2349.445556640625 2349.119384765625 2349.039794921875 2348.539794921875 2348.490234375 2348.476806640625 2347.569091796875 2345.825927734375 2342.641357421875 2340.040771484375 2335.934326171875 2332.404052734375 2328.481201171875 2324.99169921875 2320.63623046875 2316.685791015625 2312.6298828125 2308.744384765625 2305.35546875 2300.3291015625 2297.703857421875 2295.06884765625 2292.462158203125 2289.00927734375 2285.86572265625 2282.627197265625 2279.205078125 2275.704833984375 2272.278564453125 2266.1904296875 2260.925537109375 2255.5185546875 2251.162109375 2247.16796875 2244.19970703125 2240.836669921875 2236.43603515625 2231.686767578125 2225.89599609375 2219.560546875 2214.841064453125 2207.0576171875 2199.46728515625 2190.4404296875 2183.28369140625 2175.444580078125 2169.0380859375 2161.14501953125 2154.210693359375 2147.046142578125 2142.80419921875
2490.706298828125 2487.280029296875 2483.3798828125 2480.92724609375 2478.464599609375 2476.40234375 2475.608642578125 2474.353271484375 2473.7421875 2472.38916015625 2472.24462890625 2471.5654296875 2470.4375 2470.402587890625 2470.59130859375 2470.669921875 2470.80224609375 2471.7060546875 2471.962158203125 2470.80908203125 2467.1201171875 2462.41162109375 2455.930419921875 2449.62744140625 2444.3876953125 2439.07763671875 2434.935546875 2433.119140625 2431.53515625 2430.408447265625 2429.808349609375 2428.898193359375 2428.28857421875 2428.57763671875 2428.364013671875 2428.03466796875 2427.032470703125 2425.596923828125 2423.747802734375 2421.74951171875 2420.4091796875 2418.992919921875 2417.5673828125 2416.166748046875 2414.5439453125 2412.978759765625 2410.670166015625 2408.67578125 2406.42041015625 2403.84326171875 2401.269775390625 2398.89892578125 2396.33251953125 2394.649169921875 2392.52392578125 2390.993896484375 2390.05712890625 2389.678466796875 2388.87939453125 2387.857177734375 2387.01904296875 2385.87939453125 2384.29248046875 2383.33203125 2382.204345703125 2380.921875 2379.31982421875 2377.94482421875 2376.693115234375 2375.083251953125 2374.1884765625 2372.712158203125 2371.615478515625 2371.45703125 2372.00830078125 2370.78955078125 2368.095458984375 2367.069091796875 2365.55029296875 2366.085205078125 2364.240234375 2363.94482421875 2363.697509765625 2364.4892578125 2364.7294921875 2362.7470703125 2362.311767578125 2363.498046875 2363.2666015625 2362.84619140625 2362.73876953125 2362.78271484375 2361.670166015625 2360.871337890625 2359.01025390625 2357.211181640625 2356.085205078125 2355.431884765625 2354.7392578125 2353.843017578125 2354.112548828125 2354.12890625 2353.27734375 2354.011962890625 2353.80908203125 2354.921875 2355.494873046875 2357.101806640625 2357.655517578125 2359.03759765625 2359.79052734375 2358.960693359375 2357.8076171875 2357.15869140625 2355.640380859375 2354.153076171875 2352.396240234375 2350.935302734375 2349.4599609375 2348.419677734375 2347.289306640625 2346.9501953125 2346.46484375 2345.781005859375 2344.996826171875 2344.45703125 2344.39453125 2344.3603515625 2344.924072265625 2345.34130859375 2344.55517578125 2342.538818359375 2339.132568359375 2336.888671875 2334.2734375 2330.952392578125 2327.976318359375 2325.155029296875 2321.782958984375 2317.107177734375 2313.01953125 2309.0146484375 2306.1826171875 2301.760986328125 2298.63330078125 2295.826904296875 2293.093994140625 2290.324462890625 2286.956787109375 2283.7529296875 2280.527587890625 2276.9990234375 2273.603515625 2267.541748046875 2263.4072265625 2257.81884765625 2253.67236328125 2250.572265625 2247.344970703125 2243.314208984375 2238.9033203125 2234.251220703125 2228.5029296875 2224.8486328125 2219.0966796875 2210.06787109375 2202.871826171875 2194.814453125 2187.033447265625 2178.779052734375 2170.770751953125 2164.258544921875 2160.7705078125 2156.599365234375 2150.456787109375
2493.824462890625 2490.260009765625 2486.450927734375 2482.7412109375 2478.300048828125 2475.001953125 2472.65771484375 2470.9208984375 2469.886474609375 2469.099365234375 2468.224853515625 2466.59619140625 2466.497802734375 2466.267822265625 2466.0869140625 2466.45654296875 2466.498046875 2466.196533203125 2467.365966796875 2467.84130859375 2465.95703125 2462.461669921875 2456.036376953125 2450.49365234375 2445.2431640625 2439.919921875 2436.20361328125 2433.003173828125 2431.189208984375 2430.4169921875 2429.454345703125 2428.1455078125 2426.64208984375 2427.773193359375 2427.711669921875 2427.024658203125 2426.074951171875 2424.55078125 2422.755615234375 2420.727783203125 2418.643310546875 2416.933349609375 2415.49072265625 2414.051025390625 2412.716796875 2410.894775390625 2409.374267578125 2407.603515625 2405.752685546875 2403.267822265625 2400.525390625 2397.953125 2395.421142578125 2393.761474609375 2391.4658203125 2389.970703125 2388.79150390625 2387.621826171875 2386.9423828125 2386.25927734375 2385.340087890625 2384.4619140625 2383.223876953125 2382.2119140625 2381.092041015625 2380.27978515625 2379.0810546875 2377.5986328125 2376.296630859375 2374.660888671875 2373.1162109375 2372.045654296875 2370.7607421875 2369.667236328125 2369.52490234375 2368.037109375 2365.653564453125 2364.08447265625 2363.455322265625 2363.224609375 2362.4189453125 2361.68212890625 2361.04296875 2361.802734375 2361.131591796875 2359.55517578125 2359.098876953125 2358.55322265625 2358.443359375 2358.565673828125 2358.2939453125 2357.19482421875 2356.327392578125 2355.020263671875 2353.34814453125 2351.5634765625 2350.049072265625 2349.03173828125 2348.743408203125 2348.042724609375 2347.91650390625 2346.96923828125 2347.4091796875 2346.76708984375 2347.687744140625 2348.915283203125 2350.276123046875 2350.789794921875 2351.589111328125 2352.3515625 2352.612060546875 2352.33203125 2352.498046875 2352.130859375 2351.380126953125 2350.402099609375 2348.7021484375 2346.8212890625 2345.4375 2344.0078125 2343.476806640625 2342.526611328125 2342.150390625 2341.001708984375 2340.847412109375 2340.070556640625 2339.92822265625 2339.97314453125 2340.679443359375 2341.510986328125 2340.30517578125 2337.822509765625 2334.169189453125 2331.833251953125 2330.4873046875 2328.622802734375 2325.689208984375 2323.038818359375 2319.953857421875 2316.539306640625 2313.238037109375 2308.7880859375 2306.010498046875 2302.07470703125 2298.3544921875 2295.5234375 2293.104736328125 2290.195068359375 2287.260498046875 2284.2236328125 2280.885009765625 2277.232666015625 2274.22705078125 2270.32373046875 2265.004638671875 2261.092529296875 2257.711181640625 2254.135986328125 2250.26416015625 2246.53271484375 2241.203857421875 2235.796142578125 2230.512451171875 2225.30615234375 2219.298583984375 2213.080322265625 2206.64306640625 2199.082275390625 2190.24755859375 2182.1708984375 2175.79638671875 2171.16064453125 2170.783203125 2163.896484375 2159.7314453125
2494.876708984375 2492.088134765625 2488.1416015625 2484.46533203125 2480.386474609375 2476.640625 2473.543212890625 2470.91357421875 2468.81689453125 2466.730712890625 2464.751953125 2464.091552734375 2463.65673828125 2462.963623046875 2462.58349609375 2461.8349609375 2462.4130859375 2462.992919921875 2462.71630859375 2463.447509765625 2463.4931640625 2461.266357421875 2456.513916015625 2450.903076171875 2445.4423828125 2439.867431640625 2435.51611328125 2432.314208984375 2429.791015625 2428.74462890625 2428.103515625 2426.88134765625 2425.375244140625 2425.961181640625 2426.07763671875 2425.746826171875 2424.460693359375 2422.956787109375 2421.677734375 2419.70068359375 2417.51123046875 2415.298583984375 2413.457763671875 2412.461181640625 2411.307861328125 2409.55908203125 2408.327880859375 2406.667236328125 2405.0546875 2402.543701171875 2399.732177734375 2397.310791015625 2394.4169921875 2392.585693359375 2390.90625 2388.967041015625 2388.038818359375 2386.873046875 2385.63623046875 2384.865478515625 2384.15185546875 2383.412109375 2382.3486328125 2381.234130859375 2380.41015625 2379.68310546875 2378.635498046875 2377.35107421875 2376.126708984375 2374.4951171875 2373.106201171875 2371.970703125 2370.79736328125 2369.53759765625 2368.2919921875 2365.875244140625 2364.125244140625 2362.454345703125 2361.27734375 2361.06689453125 2360.552734375 2360.12255859375 2359.595703125 2359.545654296875 2359.00341796875 2357.71826171875 2356.510986328125 2355.31689453125 2354.496337890625 2354.118408203125 2353.263427734375 2352.417236328125 2351.3056640625 2349.53369140625 2348.046142578125 2346.325927734375 2344.313720703125 2343.525146484375 2342.607421875 2342.586181640625 2341.713134765625 2341.73291015625 2341.125 2341.677001953125 2342.228271484375 2343.510498046875 2344.389404296875 2344.92333984375 2345.769287109375 2346.273193359375 2347.30419921875 2346.986328125 2346.6201171875 2346.331787109375 2345.8408203125 2345.23046875 2344.7041015625 2343.4375 2342.796875 2340.884521484375 2339.70263671875 2338.55810546875 2337.70166015625 2337.021728515625 2336.0986328125 2335.92529296875 2336.02880859375 2335.378662109375 2335.27734375 2335.481689453125 2336.217529296875 2333.10986328125 2329.53564453125 2326.704833984375 2325.6845703125 2323.38720703125 2321.40869140625 2319.10498046875 2316.114013671875 2313.302490234375 2311.212158203125 2307.197021484375 2304.010498046875 2300.760986328125 2297.412841796875 2294.38427734375 2291.90869140625 2289.203369140625 2286.29345703125 2283.353759765625 2280.060302734375 2276.5966796875 2273.134033203125 2270.077880859375 2266.984375 2263.8759765625 2260.772705078125 2257.00048828125 2252.826171875 2247.36279296875 2240.513427734375 2235.2802734375 2230.53515625 2225.94189453125 2219.580810546875 2215.30322265625 2211.10107421875 2203.8408203125 2195.981689453125 2188.170654296875 2185.588134765625 2181.74609375 2175.118896484375 2169.70263671875 2167.21044921875
2494.530517578125 2491.28271484375 2488.240478515625 2485.234130859375 2481.757568359375 2479.22998046875 2476.462158203125 2473.22802734375 2470.54833984375 2467.693603515625 2464.538818359375 2462.0322265625 2460.694091796875 2460.03955078125 2459.3603515625 2458.535888671875 2458.60400390625 2459.298095703125 2459.373779296875 2459.6416015625 2459.702392578125 2459.44580078125 2455.506103515625 2451.089111328125 2445.87255859375 2440.38916015625 2435.602294921875 2432.213134765625 2429.107666015625 2427.34619140625 2426.2666015625 2425.256103515625 2423.976806640625 2423.583740234375 2423.566650390625 2423.23779296875 2421.8935546875 2420.55517578125 2419.496337890625 2418.108642578125 2416.267578125 2414.476806640625 2412.458984375 2410.755859375 2409.6220703125 2408.202392578125 2406.7353515625 2405.412841796875 2403.244140625 2401.18798828125 2398.94140625 2396.4619140625 2394.083251953125 2392.13037109375 2389.96533203125 2388.485107421875 2387.40185546875 2386.567626953125 2385.097412109375 2383.673583984375 2383.103271484375 2382.502197265625 2381.552001953125 2380.630126953125 2379.72021484375 2379.075439453125 2378.215576171875 2377.117919921875 2376.068115234375 2374.8955078125 2373.497802734375 2372.2861328125 2370.955322265625 2369.772216796875 2368.48095703125 2366.41943359375 2362.540283203125 2361.3330078125 2359.99267578125 2358.94775390625 2359.011474609375 2358.42529296875 2357.96142578125 2357.793701171875 2356.96826171875 2355.799560546875 2354.682373046875 2353.205078125 2351.817138671875 2350.51025390625 2349.57373046875 2348.679931640625 2347.364501953125 2345.272705078125 2343.635498046875 2341.73779296875 2340.43896484375 2338.4033203125 2337.142578125 2336.44482421875 2336.05615234375 2336.201904296875 2335.58251953125 2335.829345703125 2336.352783203125 2337.338623046875 2338.26123046875 2339.805419921875 2340.1728515625 2340.853759765625 2341.585205078125 2340.882080078125 2340.791259765625 2340.63427734375 2340.171875 2339.157958984375 2338.81689453125 2338.246337890625 2337.132080078125 2337.061279296875 2335.712646484375 2334.501953125 2333.241455078125 2331.574951171875 2330.454833984375 2331.004150390625 2331.2373046875 2329.3935546875 2328.7236328125 2328.17626953125 2326.826416015625 2324.534423828125 2323.154296875 2320.476806640625 2318.46044921875 2316.955322265625 2314.91650390625 2312.582275390625 2311.138427734375 2309.2392578125 2306.65771484375 2304.503173828125 2301.4111328125 2298.694580078125 2295.98828125 2292.532958984375 2289.931640625 2287.457275390625 2284.58447265625 2281.292724609375 2278.168701171875 2274.516357421875 2270.875244140625 2267.71826171875 2264.99072265625 2262.072509765625 2259.48486328125 2257.01953125 2252.67724609375 2248.091552734375 2242.841064453125 2238.21142578125 2234.0859375 2229.03125 2224.32421875 2219.989013671875 2214.8125 2206.707763671875 2202.118896484375 2196.556884765625 2193.6923828125 2186.977294921875 2181.32421875 2178.40283203125 2174.250732421875
2497.39208984375 2494.1337890625 2491.204833984375 2487.416748046875 2483.841552734375 2481.635498046875 2479.015625 2476.17578125 2472.560546875 2469.995849609375 2466.111572265625 2463.3515625 2460.875244140625 2458.63232421875 2457.401123046875 2456.029296875 2455.83447265625 2456.177734375 2456.273193359375 2456.40185546875 2456.586669921875 2456.5458984375 2453.845947265625 2450.1728515625 2445.74609375 2441.318115234375 2436.558349609375 2432.71435546875 2429.622802734375 2426.97412109375 2425.38525390625 2424.1416015625 2423.112548828125 2421.838134765625 2421.45556640625 2420.717529296875 2419.7255859375 2418.277099609375 2416.8193359375 2415.7373046875 2414.36083984375 2412.605224609375 2411.2666015625 2409.789306640625 2407.771240234375 2406.732666015625 2405.07421875 2403.319580078125 2401.133056640625 2399.220947265625 2397.4453125 2394.98095703125 2393.103759765625 2390.9755859375 2389.022705078125 2387.281494140625 2386.27734375 2385.375732421875 2384.086181640625 2382.9130859375 2381.76953125 2381.41650390625 2380.68994140625 2380.05322265625 2379.093505859375 2378.363525390625 2377.62890625 2376.684326171875 2375.837646484375 2374.55859375 2373.31884765625 2372.073486328125 2370.676513671875 2369.157470703125 2367.878173828125 2366.091064453125 2363.384521484375 2359.947265625 2358.9697265625 2357.595458984375 2356.64208984375 2356.885009765625 2356.490234375 2356.142333984375 2355.300048828125 2353.738037109375 2353.06640625 2351.518798828125 2350.378173828125 2348.590087890625 2346.969970703125 2345.77587890625 2344.09765625 2342.5478515625 2340.579345703125 2338.532958984375 2335.99951171875 2334.54150390625 2332.616455078125 2331.518310546875 2330.81005859375 2330.61767578125 2330.62939453125 2330.1064453125 2330.353759765625 2331.720458984375 2332.62255859375 2333.679443359375 2334.81982421875 2335.433349609375 2335.61083984375 2335.999267578125 2335.504638671875 2334.530029296875 2333.94921875 2333.689697265625 2332.9267578125 2332.443115234375 2331.68408203125 2330.902587890625 2330.0859375 2329.15869140625 2328.0224609375 2326.661376953125 2325.781494140625 2325.773193359375 2325.039794921875 2322.733642578125 2321.07958984375 2320.132568359375 2320.763671875 2317.77978515625 2316.418212890625 2313.102294921875 2311.058349609375 2309.630126953125 2307.816650390625 2306.1474609375 2304.755615234375 2302.2763671875 2301.90380859375 2300.274169921875 2297.9560546875 2295.59375 2293.239013671875 2290.502197265625 2287.06396484375 2284.514404296875 2281.659423828125 2278.69580078125 2275.108154296875 2271.99072265625 2268.228271484375 2265.130126953125 2261.9794921875 2259.052734375 2256.664306640625 2254.444091796875 2252.104248046875 2248.631591796875 2244.74072265625 2240.26904296875 2235.831787109375 2230.784423828125 2225.345458984375 2219.938720703125 2214.837646484375 2210.292236328125 2206.591552734375 2201.024169921875 2195.847900390625 2191.0537109375 2186.74072265625 2181.55712890625 2176.17919921875
2501.5224609375 2498.337890625 2494.89306640625 2491.269775390625 2486.292236328125 2483.564208984375 2480.55712890625 2477.843505859375 2474.81591796875 2471.981689453125 2468.577880859375 2465.41064453125 2462.9794921875 2460.3720703125 2457.71533203125 2455.597900390625 2453.8486328125 2452.673095703125 2452.8603515625 2453.4208984375 2453.784912109375 2453.778076171875 2452.4326171875 2449.415771484375 2445.687255859375 2441.254150390625 2437.747802734375 2434.18359375 2430.800537109375 2428.08544921875 2426.1787109375 2424.38525390625 2422.81640625 2421.15234375 2419.84912109375 2418.691162109375 2417.682373046875 2415.57568359375 2413.8916015625 2412.964599609375 2411.6796875 2410.110595703125 2409.197021484375 2407.39501953125 2405.8154296875 2404.041748046875 2401.948974609375 2400.30126953125 2398.90966796875 2397.668212890625 2395.92578125 2393.513916015625 2391.532470703125 2389.359619140625 2387.572509765625 2385.56982421875 2383.71337890625 2382.725830078125 2382.400634765625 2381.57177734375 2380.71826171875 2379.7646484375 2379.55126953125 2378.76318359375 2378.342529296875 2377.80810546875 2377.064697265625 2376.172119140625 2374.96875 2373.905517578125 2372.782958984375 2371.236328125 2369.890869140625 2368.49951171875 2366.20849609375 2364.201904296875 2362.324462890625 2359.171875 2357.601806640625 2355.90380859375 2354.682861328125 2355.1259765625 2354.646240234375 2354.202392578125 2353.612548828125 2352.27099609375 2351.121826171875 2350.2802734375 2349.01953125 2347.185546875 2345.21484375 2343.7705078125 2341.55517578125 2340.021240234375 2337.834716796875 2335.372314453125 2333.63330078125 2331.921142578125 2329.892822265625 2328.343505859375 2327.1298828125 2326.414306640625 2325.991943359375 2325.483154296875 2325.981201171875 2326.498779296875 2328.395263671875 2328.852294921875 2329.657958984375 2329.621826171875 2329.88671875 2329.972412109375 2329.697509765625 2327.616943359375 2327.9248046875 2327.8095703125 2326.38818359375 2326.27783203125 2326.382568359375 2325.930419921875 2324.83984375 2323.784423828125 2322.078125 2320.848876953125 2319.9072265625 2318.805419921875 2317.42919921875 2316.117919921875 2314.545654296875 2313.010986328125 2312.906005859375 2310.188232421875 2308.533935546875 2305.91748046875 2303.566650390625 2302.1220703125 2300.585205078125 2298.9580078125 2296.537841796875 2295.99365234375 2294.944580078125 2295.4560546875 2294.378173828125 2292.212158203125 2289.79052734375 2287.634765625 2284.065185546875 2280.704833984375 2277.5869140625 2275.012451171875 2272.405029296875 2268.976318359375 2265.011474609375 2262.379150390625 2259.343505859375 2256.3037109375 2252.9658203125 2250.776611328125 2248.724365234375 2245.940185546875 2243.046630859375 2239.066162109375 2234.714599609375 2229.375244140625 2223.68359375 2218.060302734375 2210.78515625 2206.864990234375 2202.808349609375 2196.91162109375 2192.84765625 2189.782958984375 2185.4072265625 2181.301025390625 2177.233154296875
2504.20166015625 2501.732177734375 2498.457763671875 2495.22265625 2490.713623046875 2487.831298828125 2483.955078125 2480.630859375 2477.199951171875 2474.3037109375 2470.279296875 2467.856201171875 2465.078369140625 2462.281005859375 2459.999755859375 2457.420654296875 2454.444580078125 2451.71142578125 2450.243896484375 2450.08349609375 2451.054443359375 2450.841552734375 2449.82373046875 2447.186767578125 2444.171630859375 2440.82568359375 2437.6015625 2434.9267578125 2432.24169921875 2429.89453125 2427.427001953125 2425.008544921875 2422.907958984375 2420.871826171875 2418.427001953125 2416.97265625 2415.570068359375 2414.095703125 2412.941162109375 2412.213623046875 2410.511474609375 2408.971435546875 2408.087890625 2406.265380859375 2404.197509765625 2402.5595703125 2400.795654296875 2399.170166015625 2396.982421875 2395.5390625 2394.73046875 2392.891845703125 2390.3525390625 2388.462890625 2386.09375 2384.5498046875 2383.0751953125 2381.175048828125 2380.361572265625 2379.73486328125 2378.893798828125 2378.040283203125 2377.360595703125 2377.353271484375 2377.285400390625 2377.20654296875 2376.58154296875 2375.748046875 2374.516845703125 2373.34814453125 2371.93408203125 2370.396240234375 2368.919189453125 2367.021484375 2365.094970703125 2363.32763671875 2361.32763671875 2358.16455078125 2356.068115234375 2354.453369140625 2352.720703125 2352.39794921875 2352.149169921875 2351.803466796875 2351.4990234375 2350.939453125 2349.94677734375 2348.9697265625 2347.577880859375 2346.2802734375 2344.543701171875 2342.774658203125 2340.484130859375 2338.25341796875 2336.483154296875 2334.040283203125 2331.938232421875 2329.712646484375 2327.40185546875 2325.3525390625 2324.384765625 2323.126708984375 2322.436767578125 2322.024658203125 2321.796142578125 2321.887451171875 2322.075439453125 2323.172119140625 2324.068359375 2324.505126953125 2323.644287109375 2323.521484375 2322.600341796875 2322.392822265625 2321.937255859375 2321.186279296875 2320.978759765625 2320.831787109375 2320.5595703125 2320.04296875 2318.75732421875 2318.23193359375 2316.700927734375 2314.485107421875 2313.512939453125 2311.95263671875 2311.1005859375 2309.066162109375 2307.426025390625 2305.769775390625 2303.753173828125 2301.859375 2299.795654296875 2298.760009765625 2296.934326171875 2295.21240234375 2293.999755859375 2291.918212890625 2290.270751953125 2288.98583984375 2289.53076171875 2289.889404296875 2290.135986328125 2287.964599609375 2284.521484375 2282.422607421875 2279.5458984375 2277.053955078125 2273.667236328125 2271.143310546875 2267.8271484375 2265.104736328125 2262.38232421875 2259.031005859375 2256.663330078125 2253.52294921875 2250.595947265625 2247.5078125 2245.554443359375 2242.765869140625 2239.13671875 2234.754150390625 2230.3623046875 2226.897216796875 2220.695556640625 2215.17822265625 2207.69775390625 2201.06005859375 2196.679443359375 2191.5078125 2187.671875 2183.5380859375 2180.428466796875 2177.219482421875 2174.474365234375
2504.298583984375 2501.972412109375 2499.7080078125 2498.217529296875 2495.18115234375 2491.429931640625 2488.09423828125 2484.4775390625 2480.739990234375 2477.0810546875 2472.620361328125 2469.648193359375 2467.264892578125 2463.506591796875 2461.111328125 2458.71484375 2455.78662109375 2452.764892578125 2449.693359375 2448.00732421875 2447.729248046875 2447.882568359375 2446.884765625 2444.7666015625 2441.94677734375 2438.576904296875 2435.926513671875 2433.67529296875 2432.252197265625 2430.119873046875 2428.1875 2425.87744140625 2423.357177734375 2421.13623046875 2418.944091796875 2417.515869140625 2416.4541015625 2416.391357421875 2415.371826171875 2413.968017578125 2412.6552734375 2411.0791015625 2410.005126953125 2408.528076171875 2406.245361328125 2404.0185546875 2402.675537109375 2400.849853515625 2398.54638671875 2396.1640625 2393.999755859375 2392.02294921875 2390.83935546875 2389.520751953125 2387.66455078125 2385.9013671875 2383.838134765625 2381.7490234375 2379.563720703125 2378.716796875 2377.555908203125 2376.82421875 2375.907470703125 2375.707275390625 2375.5283203125 2376.0869140625 2375.9775390625 2375.159912109375 2374.015625 2372.718017578125 2371.146240234375 2369.65087890625 2368.484375 2366.652587890625 2365.32373046875 2363.7255859375 2361.269775390625 2357.7568359375 2355.509765625 2353.560791015625 2351.287109375 2349.620361328125 2349.56640625 2349.125 2349.119384765625 2349.255859375 2348.96875 2348.192138671875 2346.999755859375 2345.2734375 2343.699951171875 2342.35693359375 2340.4736328125 2338.220458984375 2336.10009765625 2333.41552734375 2331.3720703125 2328.849853515625 2326.690673828125 2324.367919921875 2322.59716796875 2320.38623046875 2319.73095703125 2319.223876953125 2318.919677734375 2317.983642578125 2317.654052734375 2318.3896484375 2318.548828125 2318.765869140625 2318.388671875 2317.99365234375 2317.330810546875 2316.39794921875 2315.1728515625 2315.664794921875 2315.2099609375 2315.16748046875 2314.49951171875 2314.13232421875 2313.268798828125 2312.3857421875 2310.94482421875 2308.94775390625 2307.486328125 2306.3623046875 2304.97265625 2303.18408203125 2301.350341796875 2299.15966796875 2296.529052734375 2295.24072265625 2293.09326171875 2290.931640625 2290.272216796875 2288.687744140625 2287.299072265625 2285.697998046875 2283.992919921875 2282.777099609375 2283.630126953125 2285.098388671875 2285.765869140625 2284.32666015625 2280.8916015625 2277.53857421875 2275.2421875 2272.54736328125 2270.46240234375 2267.8955078125 2264.91748046875 2262.232177734375 2259.019287109375 2255.818359375 2253.25390625 2250.633544921875 2247.908935546875 2244.664794921875 2242.1552734375 2239.543212890625 2235.859130859375 2231.28076171875 2225.234130859375 2219.98583984375 2216.64453125 2210.38916015625 2203.49609375 2197.58984375 2190.6875 2184.824462890625 2181.0146484375 2177.433349609375 2174.43017578125 2172.24462890625 2169.252685546875
2505.927001953125 2502.2626953125 2500.371826171875 2499.5576171875 2497.2373046875 2493.8564453125 2490.485595703125 2488.28173828125 2484.904296875 2480.393310546875 2475.884765625 2471.420654296875 2469.069091796875 2464.824951171875 2461.88037109375 2459.39501953125 2456.81787109375 2454.1171875 2451.30615234375 2447.9912109375 2445.64306640625 2444.818359375 2444.21923828125 2443.000244140625 2440.320556640625 2437.513916015625 2435.165771484375 2432.908935546875 2431.1416015625 2429.53271484375 2427.9775390625 2426.3173828125 2423.795166015625 2421.623046875 2419.60888671875 2418.60400390625 2418.810546875 2418.76416015625 2417.32470703125 2415.731201171875 2414.094970703125 2412.81591796875 2411.41796875 2409.747802734375 2407.6630859375 2405.52783203125 2403.737548828125 2401.46875 2399.6025390625 2397.884765625 2395.793212890625 2394.07568359375 2392.3759765625 2390.628173828125 2388.891845703125 2386.520263671875 2384.5390625 2382.69775390625 2380.308349609375 2378.37548828125 2376.902099609375 2375.517333984375 2374.85107421875 2374.243408203125 2373.7265625 2374.55126953125 2374.61767578125 2373.85302734375 2372.66357421875 2371.2158203125 2370.09619140625 2368.701904296875 2367.52392578125 2365.859619140625 2364.8466796875 2363.41064453125 2360.888671875 2356.761474609375 2354.30615234375 2353.044189453125 2350.8564453125 2348.48095703125 2347.31640625 2346.8173828125 2346.471923828125 2346.93017578125 2347.0283203125 2346.665283203125 2345.829833984375 2344.85986328125 2343.4755859375 2342.054443359375 2340.65771484375 2338.372314453125 2336.19091796875 2333.95068359375 2331.85498046875 2329.715087890625 2327.135498046875 2324.577880859375 2322.231201171875 2320.137451171875 2318.29296875 2316.74365234375 2315.44287109375 2314.642822265625 2313.620361328125 2313.193359375 2313.1494140625 2312.58154296875 2312.975830078125 2312.106201171875 2310.792236328125 2310.709716796875 2309.82421875 2308.935546875 2308.455810546875 2308.56640625 2308.345947265625 2308.143310546875 2307.009033203125 2306.1875 2304.8310546875 2302.606201171875 2300.83544921875 2299.712890625 2298.85498046875 2296.981689453125 2294.57958984375 2292.49462890625 2289.422119140625 2288.205810546875 2286.11572265625 2284.857666015625 2283.112548828125 2281.718505859375 2280.1162109375 2278.8203125 2277.55859375 2276.20751953125 2277.38134765625 2279.3603515625 2281.672119140625 2280.33203125 2277.505615234375 2274.098876953125 2270.91845703125 2269.1796875 2267.16845703125 2264.709228515625 2262.119140625 2258.71533203125 2255.25732421875 2252.614501953125 2250.105224609375 2247.18359375 2244.72998046875 2241.89306640625 2239.708984375 2237.28271484375 2233.76123046875 2229.026611328125 2222.739990234375 2215.0947265625 2208.5458984375 2203.38623046875 2196.051513671875 2190.94775390625 2186.230712890625 2180.0888671875 2174.882080078125 2170.542724609375 2168.142578125 2166.41748046875 2163.748291015625
2505.97216796875 2502.413330078125 2499.700927734375 2499.891357421875 2497.89599609375 2494.24267578125 2489.83935546875 2489.23974609375 2488.253173828125 2485.6171875 2479.46533203125 2474.51513671875 2469.90234375 2467.290283203125 2463.3828125 2460.871826171875 2458.557373046875 2455.16943359375 2452.03369140625 2449.265380859375 2445.953369140625 2443.59033203125 2442.248779296875 2441.06201171875 2439.0224609375 2437.227294921875 2436.02197265625 2433.91357421875 2431.99462890625 2430.378173828125 2429.08154296875 2427.21044921875 2425.3505859375 2423.32080078125 2421.9833984375 2421.427490234375 2421.457763671875 2420.471435546875 2418.5986328125 2416.899658203125 2415.429931640625 2414.132080078125 2412.548828125 2410.703369140625 2408.79345703125 2406.552490234375 2404.5390625 2402.58935546875 2400.603759765625 2399.109375 2397.36865234375 2395.72607421875 2393.58544921875 2391.28369140625 2389.796142578125 2387.74658203125 2385.7490234375 2383.20703125 2380.825927734375 2378.557861328125 2376.785888671875 2374.760009765625 2373.928955078125 2373.27099609375 2372.584716796875 2372.794921875 2372.896240234375 2372.409912109375 2371.01708984375 2369.08056640625 2367.912353515625 2366.77685546875 2366.113037109375 2364.275146484375 2362.84326171875 2362.08203125 2360.134521484375 2357.142578125 2354.028564453125 2352.217529296875 2350.052978515625 2348.21484375 2346.58984375 2345.415771484375 2344.547607421875 2344.2724609375 2344.311279296875 2344.69482421875 2344.265869140625 2343.373291015625 2342.45849609375 2341.2607421875 2339.61865234375 2337.480224609375 2335.632080078125 2333.7041015625 2331.876953125 2329.787841796875 2327.426025390625 2325.0537109375 2323.340576171875 2320.96435546875 2318.718017578125 2316.4970703125 2313.89453125 2311.909912109375 2309.97998046875 2308.876220703125 2308.922119140625 2308.3359375 2308.07666015625 2307.06640625 2305.47021484375 2304.4560546875 2303.93408203125 2303.3349609375 2303.162109375 2302.622802734375 2302.12890625 2302.241455078125 2301.138916015625 2300.853271484375 2299.4326171875 2297.031982421875 2295.54443359375 2294.254638671875 2292.4365234375 2291.2421875 2288.929443359375 2287.34130859375 2284.48779296875 2281.081298828125 2279.997314453125 2278.47705078125 2276.620849609375 2275.3583984375 2273.468017578125 2272.184814453125 2270.937744140625 2270.911376953125 2272.5830078125 2276.065673828125 2278.16943359375 2276.797119140625 2273.835205078125 2270.515869140625 2268.43603515625 2265.934326171875 2263.275634765625 2261.473388671875 2259.10693359375 2256.032958984375 2252.28466796875 2250.180908203125 2247.27001953125 2243.88427734375 2241.086181640625 2238.5029296875 2236.6220703125 2234.5029296875 2231.152099609375 2226.864990234375 2221.235107421875 2214.41015625 2207.374755859375 2199.70556640625 2191.510009765625 2185.045166015625 2180.283935546875 2175.7529296875 2169.796875 2165.487060546875 2161.72509765625 2158.92919921875 2157.23388671875
2506.714111328125 2502.7861328125 2499.87548828125 2499.1904296875 2497.91015625 2494.5048828125 2489.281982421875 2489.203125 2489.888671875 2487.310791015625 2482.822509765625 2477.43798828125 2473.570068359375 2468.7763671875 2465.524658203125 2461.301025390625 2459.119140625 2457.3623046875 2454.2060546875 2451.2314453125 2448.872314453125 2445.901611328125 2443.537841796875 2441.095947265625 2439.6220703125 2438.4697265625 2437.561767578125 2435.9130859375 2434.127685546875 2432.248779296875 2431.0390625 2429.56494140625 2427.99755859375 2426.436767578125 2424.681884765625 2423.3359375 2422.56103515625 2421.1572265625 2419.365234375 2417.575439453125 2416.107666015625 2414.870849609375 2413.3583984375 2411.109619140625 2409.357666015625 2407.1923828125 2405.390869140625 2403.510986328125 2401.642578125 2400.16796875 2398.650390625 2396.799072265625 2394.76904296875 2392.8916015625 2390.904052734375 2388.757080078125 2386.758056640625 2384.306884765625 2381.996826171875 2380.0712890625 2377.8837890625 2375.67041015625 2373.88818359375 2372.400634765625 2371.31494140625 2370.454833984375 2370.23876953125 2369.82470703125 2368.96337890625 2367.331298828125 2365.746337890625 2364.396240234375 2363.6044921875 2362.665771484375 2361.06201171875 2359.919189453125 2358.752197265625 2356.895751953125 2353.7216796875 2351.70361328125 2350.0205078125 2348.263427734375 2346.518798828125 2344.857177734375 2343.09033203125 2342.752685546875 2342.41162109375 2342.25537109375 2341.94580078125 2341.09130859375 2340.4912109375 2339.44482421875 2337.86572265625 2336.14013671875 2334.22021484375 2332.63330078125 2330.72119140625 2328.681640625 2326.6318359375 2324.316650390625 2322.778564453125 2320.28662109375 2318.08251953125 2315.856201171875 2313.383544921875 2309.78369140625 2306.89892578125 2305.428466796875 2304.540283203125 2304.50146484375 2303.541748046875 2302.32080078125 2301.439453125 2300.360107421875 2299.4482421875 2297.543701171875 2297.3037109375 2296.875732421875 2296.71728515625 2295.927001953125 2295.845947265625 2294.761474609375 2293.39013671875 2291.6298828125 2289.513671875 2287.694091796875 2287.134033203125 2286.001220703125 2283.32666015625 2280.94287109375 2278.5556640625 2275.76318359375 2273.01611328125 2272.236572265625 2270.50341796875 2268.129638671875 2266.953857421875 2266.064453125 2264.101318359375 2264.63916015625 2268.226806640625 2272.651611328125 2274.6337890625 2273.482666015625 2270.546875 2267.9248046875 2265.0400390625 2262.722900390625 2260.394775390625 2257.904052734375 2255.575927734375 2252.931396484375 2249.9384765625 2246.752685546875 2243.416748046875 2240.36279296875 2237.28857421875 2234.122802734375 2231.772705078125 2229.296142578125 2225.33056640625 2221.54052734375 2217.995849609375 2212.026611328125 2205.280517578125 2198.7421875 2191.836181640625 2183.7177734375 2175.197509765625 2169.615478515625 2164.60888671875 2159.755859375 2155.6611328125 2151.8603515625 2150.24609375
2507.8408203125 2504.40185546875 2502.010498046875 2499.79296875 2497.103515625 2493.948974609375 2488.7451171875 2488.208984375 2488.306396484375 2486.241455078125 2482.905029296875 2478.9267578125 2476.081787109375 2472.26416015625 2467.97607421875 2462.428955078125 2459.493408203125 2457.48779296875 2455.466552734375 2453.326171875 2451.496337890625 2448.604248046875 2446.205810546875 2443.62109375 2440.90478515625 2438.15283203125 2436.77099609375 2435.71533203125 2434.280029296875 2432.92822265625 2431.87255859375 2430.324951171875 2429.056396484375 2427.984619140625 2426.662353515625 2425.054443359375 2423.25146484375 2421.66259765625 2420.07763671875 2418.40625 2416.57861328125 2415.34765625 2413.662841796875 2410.782470703125 2409.05419921875 2407.097412109375 2405.245849609375 2403.439208984375 2401.837890625 2400.5615234375 2398.996337890625 2397.168212890625 2395.36669921875 2393.693359375 2391.813720703125 2389.657958984375 2387.706787109375 2385.510986328125 2383.3359375 2381.1259765625 2379.094970703125 2377.1650390625 2374.635498046875 2372.801513671875 2370.80810546875 2370.005126953125 2368.77978515625 2367.194091796875 2365.77685546875 2364.762939453125 2363.53271484375 2362.4130859375 2361.177490234375 2360.076904296875 2358.8896484375 2357.895751953125 2356.386962890625 2354.673828125 2352.31591796875 2350.835205078125 2349.46240234375 2347.678955078125 2345.352783203125 2343.42041015625 2341.804931640625 2340.744384765625 2340.3935546875 2340.626953125 2340.119140625 2339.39453125 2338.533203125 2337.264892578125 2335.781494140625 2334.06005859375 2332.4423828125 2330.633544921875 2328.99365234375 2327.162109375 2325.459228515625 2322.71875 2320.628662109375 2318.815673828125 2316.567626953125 2314.594970703125 2311.79296875 2308.564453125 2305.24853515625 2302.94775390625 2301.338623046875 2300.6396484375 2299.785400390625 2298.886962890625 2297.592041015625 2296.610595703125 2295.1943359375 2293.729736328125 2292.59033203125 2292.268310546875 2290.948974609375 2290.847412109375 2290.112060546875 2289.531982421875 2289.148681640625 2287.04638671875 2284.301025390625 2281.756591796875 2280.772705078125 2280.018798828125 2278.401611328125 2275.73876953125 2273.7958984375 2270.796875 2267.59130859375 2267.16796875 2265.3291015625 2262.75830078125 2261.24462890625 2260.215576171875 2259.856201171875 2261.271728515625 2264.933349609375 2268.747314453125 2270.73583984375 2269.567138671875 2267.05615234375 2264.145751953125 2261.524169921875 2259.184814453125 2256.56884765625 2254.776123046875 2252.59228515625 2249.56103515625 2246.446044921875 2243.7294921875 2239.91552734375 2237.102783203125 2233.49365234375 2229.68798828125 2226.018310546875 2223.13916015625 2219.578857421875 2216.170166015625 2211.48779296875 2206.7724609375 2201.265380859375 2194.466552734375 2187.948974609375 2181.517578125 2174.733154296875 2166.828857421875 2160.68212890625 2154.699462890625 2150.53955078125 2146.503173828125 2143.818115234375
2509.3583984375 2506.590087890625 2503.833984375 2500.77392578125 2496.587646484375 2492.64501953125 2488.7978515625 2486.16015625 2485.159912109375 2482.87060546875 2480.318359375 2477.012451171875 2476.020263671875 2474.451416015625 2470.349609375 2465.408935546875 2460.810302734375 2457.93115234375 2455.8505859375 2454 2451.55859375 2449.3623046875 2447.13330078125 2444.714599609375 2442.091064453125 2439.358154296875 2436.39404296875 2434.6591796875 2433.438720703125 2432.353515625 2431.25439453125 2430.292724609375 2429.22021484375 2427.907470703125 2426.2763671875 2425.54248046875 2424.766357421875 2422.815185546875 2420.468505859375 2418.18017578125 2416.309326171875 2415.351806640625 2414.021240234375 2411.171630859375 2408.641845703125 2406.51953125 2404.552490234375 2402.58935546875 2401.041015625 2399.921142578125 2398.560302734375 2396.87158203125 2395.491943359375 2393.905029296875 2392.148681640625 2390.30078125 2388.5166015625 2386.274169921875 2384.2236328125 2382.157958984375 2380.255859375 2378.15673828125 2376.053955078125 2374.370849609375 2371.860107421875 2369.398193359375 2367.503662109375 2366.6162109375 2365.3798828125 2363.721923828125 2362.079345703125 2360.160888671875 2358.8828125 2357.66748046875 2356.633544921875 2355.097412109375 2353.720947265625 2352.59521484375 2351.177734375 2349.791259765625 2348.249267578125 2346.8330078125 2345.552001953125 2343.87060546875 2341.549560546875 2339.857421875 2338.529052734375 2337.994384765625 2338.2373046875 2337.459716796875 2336.5087890625 2335.2958984375 2333.7412109375 2331.96435546875 2329.80810546875 2328.33251953125 2327.182373046875 2325.802001953125 2323.255859375 2321.181640625 2318.5537109375 2316.56884765625 2313.886474609375 2311.727294921875 2309.319091796875 2306.83349609375 2304.013916015625 2301.69970703125 2299.175537109375 2298.18408203125 2296.916748046875 2295.350830078125 2294.65380859375 2292.929443359375 2291.957275390625 2289.94775390625 2288.41796875 2287.3974609375 2286.958251953125 2285.440185546875 2284.568603515625 2285.015625 2283.826171875 2282.140625 2279.615478515625 2277.177978515625 2275.361083984375 2273.9912109375 2273.0166015625 2270.2060546875 2268.686767578125 2265.482666015625 2263.084228515625 2262.197021484375 2261.251708984375 2259.0576171875 2256.685546875 2254.77490234375 2254.655029296875 2257.498046875 2261.411376953125 2264.055908203125 2264.41748046875 2262.71923828125 2261.11474609375 2258.99609375 2257.127197265625 2254.646484375 2251.562744140625 2250.041259765625 2248.09033203125 2246.08251953125 2243.703125 2240.25830078125 2236.47509765625 2233.55322265625 2230.15966796875 2225.692626953125 2220.029296875 2216.63232421875 2212.51953125 2209.50830078125 2204.661865234375 2199.969970703125 2196.374267578125 2189.76416015625 2185.008544921875 2178.57861328125 2172.657470703125 2167.189453125 2160.089599609375 2152.668701171875 2146.24169921875 2140.73583984375 2137.396728515625
2511.795654296875 2508.888671875 2505.712158203125 2501.233154296875 2496.424072265625 2492.7392578125 2489.795166015625 2486.818115234375 2483.826904296875 2480.8076171875 2477.894775390625 2476.2421875 2474.089111328125 2475.4716796875 2473.625244140625 2468.10546875 2463.45263671875 2459.231201171875 2456.76025390625 2454.7724609375 2452.43017578125 2450.43798828125 2447.86962890625 2445.245361328125 2442.884521484375 2440.54150390625 2437.51806640625 2434.473388671875 2432.443115234375 2431.283203125 2430.17431640625 2429.93701171875 2427.93017578125 2426.283935546875 2424.547607421875 2423.78759765625 2423.91552734375 2423.41943359375 2422.091552734375 2419.306396484375 2416.378173828125 2414.591064453125 2413.5546875 2411.13916015625 2408.434326171875 2405.95654296875 2403.861083984375 2401.7998046875 2399.911376953125 2398.472900390625 2397.271484375 2396.0947265625 2395.13623046875 2393.70947265625 2392.22607421875 2390.3671875 2388.8388671875 2386.49951171875 2384.8076171875 2382.8310546875 2380.929931640625 2379.163330078125 2377.290283203125 2375.47021484375 2373.38916015625 2371.1640625 2368.428955078125 2365.88720703125 2364.07763671875 2362.52197265625 2361.568115234375 2360.5791015625 2358.368408203125 2356.469970703125 2355.459716796875 2354.287109375 2353.38330078125 2352.587646484375 2351.565185546875 2351.18603515625 2349.521728515625 2349.23046875 2347.919921875 2345.789306640625 2344.027587890625 2341.886962890625 2339.39501953125 2336.572021484375 2336.2646484375 2335.27734375 2333.7568359375 2332.449951171875 2330.713623046875 2329.568603515625 2328.3916015625 2326.76123046875 2325.123046875 2323.335693359375 2321.365234375 2319.51220703125 2316.935791015625 2314.602294921875 2312.370361328125 2310.021240234375 2307.5634765625 2305.338623046875 2302.7568359375 2300.232666015625 2297.79638671875 2296.054931640625 2294.85791015625 2293.3271484375 2292.012451171875 2290.669189453125 2289.474853515625 2287.116943359375 2285.537109375 2283.572998046875 2282.703125 2280.9375 2280.47119140625 2280.2578125 2278.6826171875 2277.3203125 2275.427001953125 2272.286865234375 2269.863037109375 2268.879638671875 2267.959228515625 2265.9736328125 2263.250732421875 2261.061767578125 2258.150146484375 2257.689697265625 2257.433349609375 2255.1875 2251.865966796875 2249.986572265625 2249.989501953125 2253.705078125 2257.4111328125 2258.994384765625 2259.46435546875 2257.6357421875 2255.767822265625 2254.083740234375 2251.95361328125 2248.852294921875 2246.66943359375 2245.197021484375 2243.317138671875 2240.479248046875 2238.516357421875 2236.128173828125 2233.309814453125 2229.882080078125 2227.268798828125 2223.02978515625 2217.8544921875 2211.48876953125 2205.72900390625 2203.3603515625 2198.649169921875 2193.51611328125 2188.798828125 2184.154541015625 2178.71337890625 2175.28076171875 2168.50244140625 2163.38916015625 2158.6103515625 2151.99462890625 2145.6689453125 2137.327392578125 2132.148681640625
2514.4580078125 2510.578857421875 2506.087158203125 2501.5234375 2498.173828125 2495.010498046875 2491.789306640625 2488.706298828125 2484.70947265625 2480.548583984375 2479.1279296875 2478.823974609375 2478.70947265625 2476.4619140625 2475.69287109375 2471.5 2467.493408203125 2463.283447265625 2459.16455078125 2457.49658203125 2455.777587890625 2452.2001953125 2448.502685546875 2445.5751953125 2443.080078125 2441.00244140625 2438.83203125 2435.533935546875 2432.6484375 2431.119873046875 2430.23046875 2429.017822265625 2427.4296875 2425.729736328125 2424.00244140625 2422.29296875 2421.31103515625 2421.6611328125 2420.2236328125 2419.46826171875 2416.94189453125 2414.392578125 2412.98828125 2411.504638671875 2408.063232421875 2404.957275390625 2403.134521484375 2401.0322265625 2399.136962890625 2397.6484375 2396.08740234375 2395.085205078125 2394.074951171875 2393.023193359375 2391.496826171875 2389.942138671875 2388.39013671875 2386.451171875 2384.717529296875 2382.9541015625 2381.0166015625 2379.377685546875 2377.262451171875 2375.896484375 2374.00439453125 2372.06884765625 2369.984619140625 2367.917236328125 2365.638916015625 2363.54833984375 2362.119140625 2360.29296875 2358.871337890625 2358.045166015625 2356.767822265625 2355.604736328125 2355.55712890625 2355.272705078125 2353.8876953125 2352.95166015625 2352.187255859375 2350.89208984375 2349.334716796875 2347.072265625 2345.353515625 2343.25830078125 2340.944091796875 2337.75244140625 2335.195068359375 2332.312744140625 2329.48876953125 2327.580810546875 2326.83251953125 2326.719482421875 2325.806640625 2324.62060546875 2323.472900390625 2321.541259765625 2319.396484375 2317.685546875 2315.448486328125 2313.392578125 2311.14892578125 2308.84912109375 2306.126953125 2304.082275390625 2301.93359375 2299.626708984375 2297.536376953125 2295.2353515625 2293.6982421875 2291.487548828125 2290.27099609375 2288.8125 2287.54736328125 2285.20263671875 2282.345458984375 2280.291748046875 2278.900146484375 2277.457763671875 2276.590087890625 2275.747314453125 2274.420654296875 2273.06689453125 2271.49951171875 2268.552001953125 2265.064208984375 2263.48974609375 2261.85986328125 2260.108154296875 2258.701171875 2256.781494140625 2254.78955078125 2253.427734375 2253.3984375 2251.33837890625 2247.679443359375 2246.211181640625 2246.39892578125 2250.53515625 2253.137939453125 2254.425048828125 2253.314453125 2252.218505859375 2250.73876953125 2248.563232421875 2247.0849609375 2244.419677734375 2241.310302734375 2239.814453125 2237.532958984375 2235.441650390625 2233.495849609375 2230.92919921875 2228.397216796875 2225.2822265625 2222.706298828125 2219.96923828125 2216.550048828125 2209.7119140625 2203.1884765625 2197.492431640625 2192.1025390625 2187.4384765625 2181.931396484375 2178.24560546875 2172.0771484375 2167.995849609375 2162.717529296875 2159.414794921875 2154.987060546875 2150.11474609375 2143.982421875 2136.6826171875 2130.016357421875
2516.654296875 2511.763671875 2507.320556640625 2503.57763671875 2500.33154296875 2497.24462890625 2493.736328125 2490.096923828125 2485.9091796875 2482.588134765625 2479.75927734375 2477.655029296875 2478.259765625 2478.31689453125 2474.839599609375 2472.7158203125 2469.074462890625 2466.421630859375 2465.12841796875 2463.4365234375 2459.919189453125 2455.576416015625 2449.04931640625 2445.519287109375 2443.0185546875 2441.117431640625 2439.215576171875 2437.18603515625 2435.16748046875 2433.981689453125 2432.40869140625 2430.73291015625 2429.02392578125 2426.816162109375 2424.633544921875 2421.909423828125 2419.177734375 2418.678955078125 2418.189697265625 2417.291748046875 2416.23388671875 2414.8203125 2413.505126953125 2412.244873046875 2408.6875 2405.194091796875 2402.35009765625 2400.091796875 2398.045654296875 2396.341064453125 2394.82470703125 2393.8681640625 2392.98779296875 2391.8203125 2390.4560546875 2389.032470703125 2387.645751953125 2386.02734375 2384.330322265625 2382.791748046875 2380.985107421875 2379.380615234375 2377.538818359375 2375.927978515625 2374.07421875 2372.39990234375 2370.57958984375 2368.58642578125 2366.38427734375 2364.283203125 2362.685546875 2361.0546875 2359.67138671875 2358.5986328125 2357.939697265625 2357.1884765625 2356.539306640625 2355.874755859375 2355.054443359375 2354.282958984375 2353.4111328125 2351.93701171875 2350.250244140625 2347.488525390625 2345.30615234375 2343.348876953125 2341.49609375 2338.719482421875 2335.9013671875 2332.77490234375 2329.581787109375 2325.6357421875 2323.426513671875 2322.2822265625 2322.30322265625 2321.814208984375 2320.77392578125 2318.919677734375 2316.9443359375 2315.33447265625 2313.591796875 2311.060791015625 2309.423095703125 2307.25341796875 2305.31005859375 2303.36669921875 2301.33154296875 2299.548828125 2297.768798828125 2295.70263671875 2293.926025390625 2292.333984375 2290.66259765625 2288.530517578125 2287.052490234375 2284.7265625 2281.3037109375 2278.07373046875 2275.2939453125 2273.771484375 2272.62060546875 2271.37548828125 2270.32568359375 2269.1708984375 2267.809814453125 2264.395263671875 2261.21240234375 2258.587646484375 2257.3310546875 2255.49072265625 2254.125244140625 2252.79736328125 2250.423583984375 2249.07568359375 2248.414794921875 2247.97412109375 2244.2275390625 2242.091796875 2242.285400390625 2246.369873046875 2248.357177734375 2248.533935546875 2247.60400390625 2246.317626953125 2244.95458984375 2243.35498046875 2240.954833984375 2238.494873046875 2236.02734375 2233.787353515625 2231.8828125 2230.0927734375 2227.751220703125 2225.721435546875 2223.017822265625 2220.13134765625 2217.821533203125 2215.3828125 2212.017578125 2208.800537109375 2203.907470703125 2197.3984375 2189.76904296875 2184.67431640625 2177.657958984375 2171.219970703125 2166.638671875 2161.934326171875 2156.520263671875 2152.418701171875 2148.17138671875 2145.446533203125 2142.02880859375 2135.885009765625 2128.275390625
2518.75390625 2514.098876953125 2509.88623046875 2506.555419921875 2503.379150390625 2499.074462890625 2493.94384765625 2490.98193359375 2487.50927734375 2484.800537109375 2482.03369140625 2479.161865234375 2477.53564453125 2477.826904296875 2471.0458984375 2469.26904296875 2465.90625 2465.607421875 2466.3779296875 2465.816162109375 2462.251708984375 2455.944580078125 2450.733154296875 2446.692138671875 2443.329345703125 2440.752685546875 2438.837646484375 2437.370849609375 2435.91455078125 2434.607421875 2432.930908203125 2431.591552734375 2429.744384765625 2427.462646484375 2425.867431640625 2423.293701171875 2419.876220703125 2417.369140625 2415.51806640625 2414.5107421875 2413.50244140625 2413.254638671875 2413.0009765625 2412.69580078125 2411.057861328125 2407.14111328125 2402.33203125 2399.624267578125 2396.887939453125 2395.0986328125 2393.5703125 2392.488037109375 2391.650146484375 2390.696044921875 2389.22021484375 2387.891845703125 2386.717041015625 2385.144775390625 2383.642578125 2382.193603515625 2380.6806640625 2379.1494140625 2377.44775390625 2375.859619140625 2374.164794921875 2372.686279296875 2371.0234375 2369.044677734375 2366.907470703125 2364.924072265625 2363.272705078125 2361.136474609375 2359.751220703125 2358.68115234375 2357.754638671875 2356.734619140625 2356.07470703125 2355.7568359375 2355.16796875 2354.15380859375 2353.09228515625 2351.75048828125 2349.939208984375 2347.236572265625 2345.1484375 2343.03076171875 2341.127197265625 2338.52587890625 2336.10546875 2332.21826171875 2328.04541015625 2324.544921875 2320.229248046875 2318.29833984375 2319.156005859375 2318.3310546875 2317.333984375 2315.46044921875 2313.681884765625 2312.5498046875 2310.76171875 2308.556640625 2307.43603515625 2305.803466796875 2304.432861328125 2302.78271484375 2301.01806640625 2299.2958984375 2297.625732421875 2296.282470703125 2294.592529296875 2293.07666015625 2291.5859375 2289.81298828125 2287.918212890625 2285.619873046875 2282.075439453125 2277.70849609375 2274.057861328125 2269.9775390625 2267.70068359375 2267.7861328125 2266.68896484375 2265.83349609375 2263.5263671875 2260.749755859375 2258.185302734375 2254.983642578125 2252.917236328125 2251.501953125 2249.5869140625 2247.534912109375 2245.716552734375 2243.942138671875 2243.173583984375 2243.78125 2240.880126953125 2238.251220703125 2238.405029296875 2241.7373046875 2243.938232421875 2243.574951171875 2242.197509765625 2240.9345703125 2239.4912109375 2238.1201171875 2235.8662109375 2233.6689453125 2231.078857421875 2228.951904296875 2226.83251953125 2224.258544921875 2222.11572265625 2219.639404296875 2218.255126953125 2215.467529296875 2212.709716796875 2210.390869140625 2207.306396484375 2204.18115234375 2200.72998046875 2196.767333984375 2190.880615234375 2185.337158203125 2178.61474609375 2171.67724609375 2161.889404296875 2155.959716796875 2150.602783203125 2145.75439453125 2142.653564453125 2138.887939453125 2136.090087890625 2131.35693359375 2125.22412109375
2521.0419921875 2516.525634765625 2513.310302734375 2509.56689453125 2505.463623046875 2499.633544921875 2495.020263671875 2492.401123046875 2489.763427734375 2487.36572265625 2484.585205078125 2481.61865234375 2478.96826171875 2477.080078125 2472.564453125 2469.59033203125 2466.150146484375 2462.945556640625 2462.667724609375 2462.901611328125 2461.69873046875 2458.112060546875 2454.42626953125 2450.083251953125 2446.7978515625 2442.96728515625 2439.4296875 2436.744384765625 2435.204833984375 2434.0419921875 2432.612060546875 2431.1376953125 2429.688232421875 2428.23095703125 2426.2177734375 2424.291259765625 2421.56982421875 2418.45068359375 2415.1015625 2413.713134765625 2412.566162109375 2411.013427734375 2410.065673828125 2410.205810546875 2411.352294921875 2409.508056640625 2405.501708984375 2401.799072265625 2397.364013671875 2394.649658203125 2392.382568359375 2390.96435546875 2390.031982421875 2389.055419921875 2387.6923828125 2386.646240234375 2385.377685546875 2383.9814453125 2382.55712890625 2381.326171875 2380.197998046875 2378.75537109375 2377.093505859375 2375.255859375 2374.0185546875 2372.4521484375 2370.921630859375 2369.06298828125 2367.16455078125 2365.222900390625 2363.291015625 2361.3935546875 2359.49755859375 2358.58447265625 2357.44775390625 2356.31298828125 2355.03515625 2354.694580078125 2354.0771484375 2353.532958984375 2352.47021484375 2350.568603515625 2349.025634765625 2346.580078125 2343.76611328125 2341.71875 2339.681640625 2337.435302734375 2334.56494140625 2331.34765625 2327.60107421875 2324.353515625 2320.5107421875 2316.647216796875 2315.28173828125 2313.959228515625 2312.622314453125 2311.706787109375 2310.138427734375 2308.462890625 2307.718505859375 2306.30517578125 2304.756591796875 2303.519287109375 2302.2431640625 2301.149169921875 2299.73974609375 2298.696044921875 2297.171875 2295.698974609375 2294.06005859375 2292.69384765625 2291.318115234375 2289.3916015625 2287.69384765625 2285.236328125 2282.506103515625 2278.04345703125 2274.379638671875 2270.348876953125 2265.724365234375 2263.042724609375 2262.645751953125 2261.334228515625 2259.187255859375 2257.094970703125 2254.306884765625 2251.5322265625 2248.959716796875 2246.68896484375 2245.255859375 2243.355224609375 2240.822998046875 2238.950927734375 2238.8505859375 2239.236083984375 2236.99951171875 2234.061279296875 2234.130126953125 2237.237548828125 2237.87890625 2237.730712890625 2236.623779296875 2235.34228515625 2234.148681640625 2232.3349609375 2230.32763671875 2227.9091796875 2225.432861328125 2223.3916015625 2221.825927734375 2219.097412109375 2216.1103515625 2214.7939453125 2212.3583984375 2209.486328125 2207.16796875 2204.445556640625 2201.841796875 2198.978271484375 2195.96875 2191.733642578125 2188.010498046875 2184.063232421875 2178.992919921875 2173.0458984375 2166.524658203125 2156.875732421875 2150.09765625 2141.898193359375 2136.458740234375 2131.46728515625 2127.55859375 2124.618408203125 2120.940185546875
2524.047607421875 2520.711181640625 2516.632080078125 2512.04150390625 2505.93994140625 2501.310546875 2498.335205078125 2495.97509765625 2493.447265625 2490.054931640625 2487.31787109375 2482.666015625 2479.39892578125 2475.651123046875 2472.75048828125 2469.55859375 2466.05517578125 2463.529541015625 2461.3251953125 2460.859619140625 2460.188232421875 2458.5498046875 2455.42333984375 2452.808349609375 2449.91015625 2447.417236328125 2443.91162109375 2439.087646484375 2435.227294921875 2432.6318359375 2431.2177734375 2430.28466796875 2429.06103515625 2427.39306640625 2425.604248046875 2423.929931640625 2422.1689453125 2419.89892578125 2416.90380859375 2415.01171875 2413.662841796875 2411.710205078125 2409.92138671875 2408.281494140625 2407.98193359375 2407.569580078125 2405.974609375 2403.838134765625 2400.577880859375 2397.334228515625 2393.486328125 2390.40185546875 2388.585205078125 2387.3232421875 2386.175048828125 2384.882080078125 2383.76953125 2382.79541015625 2381.691650390625 2380.6328125 2379.48095703125 2378.357177734375 2376.125244140625 2374.73828125 2373.040771484375 2371.605712890625 2370.252685546875 2368.546630859375 2366.82177734375 2365.0654296875 2363.189697265625 2361.501708984375 2359.6279296875 2358.012939453125 2356.891845703125 2355.665771484375 2354.047119140625 2352.8642578125 2351.676025390625 2351.239501953125 2350.506103515625 2348.844970703125 2347.656005859375 2345.164306640625 2342.385986328125 2339.69677734375 2337.69189453125 2335.593017578125 2332.819580078125 2330.1669921875 2326.4921875 2323.22216796875 2320.373046875 2316.7548828125 2314.732177734375 2313.017578125 2310.720947265625 2308.05078125 2306.394287109375 2304.88916015625 2303.764892578125 2302.837646484375 2301.949951171875 2300.8896484375 2299.75927734375 2298.73828125 2297.84130859375 2296.810546875 2295.566650390625 2294.237548828125 2292.928955078125 2291.561767578125 2289.8515625 2288.447509765625 2286.51806640625 2284.44775390625 2281.8583984375 2278.460205078125 2274.65185546875 2269.920166015625 2265.64453125 2261.06640625 2258.823974609375 2257.956787109375 2256.60107421875 2253.4189453125 2251.099609375 2247.907470703125 2245.43798828125 2243.40673828125 2240.8544921875 2238.97998046875 2236.85107421875 2233.738037109375 2233.315673828125 2233.81591796875 2232.724609375 2230.005859375 2229.659912109375 2231.696533203125 2232.542236328125 2232.47265625 2231.032958984375 2229.973388671875 2228.09521484375 2227.3642578125 2225.374755859375 2222.88623046875 2220.531005859375 2218.49072265625 2216.311279296875 2214.0126953125 2211.34912109375 2209.150634765625 2206.630126953125 2204.865478515625 2202.106201171875 2199.78662109375 2196.8662109375 2193.739501953125 2189.95849609375 2187.027587890625 2183.54833984375 2179.97314453125 2176.51953125 2172.18798828125 2164.559326171875 2158.751708984375 2150.486328125 2142.499267578125 2135.7109375 2127.580078125 2122.252197265625 2117.794189453125 2114.047119140625
2528.09375 2523.94189453125 2519.252197265625 2513.69970703125 2508.40869140625 2504.712646484375 2501.704345703125 2499.0634765625 2496.26318359375 2492.6962890625 2488.179443359375 2483.0205078125 2479.02392578125 2475.9140625 2473.94873046875 2471.4306640625 2468.666015625 2465.258544921875 2462.805908203125 2461.09033203125 2459.321044921875 2457.302978515625 2453.369384765625 2450.64501953125 2450.644775390625 2449.039794921875 2446.433837890625 2442.525146484375 2438.90869140625 2433.551025390625 2430.51904296875 2429.138916015625 2427.923828125 2426.069580078125 2424.9306640625 2423.632080078125 2421.94091796875 2420.01806640625 2418.010009765625 2416.170166015625 2414.507080078125 2412.49462890625 2410.30712890625 2407.9912109375 2405.69873046875 2405.090576171875 2404.268310546875 2404.24365234375 2402.818115234375 2400.454833984375 2397.06103515625 2394.0673828125 2390.821044921875 2387.298583984375 2385.228271484375 2383.683349609375 2382.2041015625 2381.256591796875 2380.076171875 2378.98828125 2378.3388671875 2377.169677734375 2375.413330078125 2373.8232421875 2372.312744140625 2370.82373046875 2369.465576171875 2367.916259765625 2366.3681640625 2364.613037109375 2363.161376953125 2361.396484375 2359.44384765625 2357.372802734375 2356.030517578125 2354.7275390625 2352.958984375 2351.83349609375 2349.516357421875 2348.643798828125 2348.214599609375 2346.99609375 2345.795166015625 2343.586669921875 2340.5419921875 2337.570556640625 2335.30615234375 2332.990234375 2330.578125 2327.9560546875 2325.006103515625 2321.58544921875 2318.79248046875 2316.38330078125 2313.09912109375 2311.666748046875 2310.406005859375 2307.87548828125 2304.755615234375 2302.00537109375 2299.892822265625 2299.044189453125 2298.01318359375 2297.633056640625 2296.827880859375 2295.987060546875 2295.195556640625 2293.970458984375 2293.014892578125 2292.163330078125 2291.042724609375 2289.52294921875 2287.909423828125 2286.2958984375 2284.43798828125 2282.23046875 2279.632080078125 2276.117919921875 2272.37841796875 2268.914794921875 2263.755126953125 2259.81494140625 2256.27197265625 2254.35205078125 2252.87451171875 2251.437744140625 2247.958984375 2245.03271484375 2242.247314453125 2239.313232421875 2236.986328125 2234.63720703125 2233.5595703125 2230.058837890625 2229.593994140625 2228.906494140625 2228.017333984375 2227.318603515625 2225.625732421875 2225.7998046875 2226.8984375 2226.770751953125 2225.918212890625 2224.546875 2223.322265625 2221.993408203125 2219.761474609375 2218.091552734375 2216.182861328125 2213.70703125 2211.214111328125 2208.9072265625 2207.13525390625 2203.54296875 2201.4931640625 2199.10791015625 2196.852294921875 2193.714111328125 2191.41259765625 2188.798828125 2185.588134765625 2182.34033203125 2177.53564453125 2174.779541015625 2171.45654296875 2169.0712890625 2164.51416015625 2159.1845703125 2151.73876953125 2145.09619140625 2136.883056640625 2128.873046875 2122.251220703125 2115.796875 2108.3935546875
2531.9306640625 2527.12548828125 2520.8876953125 2515.572265625 2511.728271484375 2508.899658203125 2505.69189453125 2502.83251953125 2499.427001953125 2495.434814453125 2489.986083984375 2484.70263671875 2481.51416015625 2478.542236328125 2475.9482421875 2473.013671875 2469.492431640625 2466.3681640625 2463.795166015625 2462.171630859375 2459.024169921875 2455.54150390625 2452.7060546875 2450.1650390625 2448.931396484375 2447.121337890625 2447.251953125 2444.353759765625 2441.516357421875 2437.431884765625 2431.54443359375 2427.94091796875 2426.491943359375 2425.102294921875 2423.9384765625 2422.68212890625 2421.062744140625 2419.454345703125 2417.75439453125 2416.106689453125 2414.27197265625 2411.960693359375 2409.89501953125 2407.782470703125 2405.404541015625 2403.12890625 2402.24658203125 2401.42529296875 2400.49951171875 2400.427734375 2399.199462890625 2396.960205078125 2394.127685546875 2390.266845703125 2386.575927734375 2383.389892578125 2380.82080078125 2379.025390625 2377.78515625 2376.593017578125 2376.017333984375 2374.84765625 2373.82080078125 2372.522705078125 2370.9541015625 2369.399658203125 2367.7470703125 2366.5712890625 2365.639892578125 2364.1806640625 2362.52783203125 2360.98046875 2359.70166015625 2357.843017578125 2355.9599609375 2353.96826171875 2351.42236328125 2349.9365234375 2347.9677734375 2345.8623046875 2345.112060546875 2344.327880859375 2343.31787109375 2341.105712890625 2338.50146484375 2335.454833984375 2332.787109375 2330.401611328125 2327.93212890625 2325.404052734375 2322.781982421875 2320.02099609375 2317.1474609375 2314.533447265625 2311.3662109375 2309.25537109375 2308.337890625 2306.8994140625 2304.807373046875 2301.936279296875 2298.349853515625 2296.46728515625 2294.986328125 2293.922119140625 2292.82763671875 2292.474853515625 2292.155029296875 2291.27587890625 2290.3310546875 2289.376708984375 2288.21875 2286.635009765625 2285.08935546875 2283.242431640625 2281.446533203125 2278.91015625 2275.98974609375 2272.683349609375 2267.927978515625 2264.452880859375 2260.83154296875 2257.030517578125 2254.710205078125 2252.391357421875 2250.306884765625 2248.014404296875 2245.431640625 2241.181884765625 2238.03369140625 2235.6748046875 2233.76708984375 2231.21337890625 2228.501953125 2226.591796875 2223.798583984375 2222.66552734375 2222.517333984375 2223.41259765625 2222.188720703125 2220.947265625 2221.817138671875 2222.138916015625 2220.76708984375 2219.70751953125 2219.03271484375 2217.05029296875 2215.108642578125 2213.03564453125 2211.341064453125 2209.20751953125 2206.6689453125 2204.025146484375 2201.833251953125 2199.35498046875 2196.048583984375 2193.318115234375 2191.11279296875 2188.753662109375 2185.61572265625 2183.3505859375 2180.5859375 2177.329345703125 2173.11767578125 2169.278564453125 2166.323486328125 2163.496337890625 2160.802734375 2157.158447265625 2152.21923828125 2145.3583984375 2138.97021484375 2131.602294921875 2123.93701171875 2117.150634765625 2110.03369140625
2535.2373046875 2529.07421875 2523.414794921875 2518.616943359375 2515.826171875 2513.02685546875 2509.72900390625 2506.3818359375 2502.470458984375 2497.216796875 2491.332275390625 2487.51123046875 2484.60791015625 2481.493896484375 2478.2373046875 2474.049072265625 2469.65576171875 2466.915283203125 2463.614013671875 2461.467041015625 2459.8779296875 2456.416259765625 2453.213623046875 2450.9296875 2448.98046875 2447.8115234375 2446.40966796875 2444.402587890625 2442.908447265625 2439.19287109375 2434.41357421875 2428.71923828125 2425.8984375 2424.4423828125 2423 2421.761962890625 2420.270751953125 2418.60546875 2416.919677734375 2415.218017578125 2413.21240234375 2411.12939453125 2409.034912109375 2407.357421875 2405.408447265625 2403.023193359375 2399.8486328125 2399.171875 2397.866455078125 2396.668212890625 2395.84619140625 2395.780029296875 2395.138671875 2392.84375 2388.938232421875 2384.979248046875 2381.472412109375 2378.1943359375 2375.951416015625 2373.9951171875 2373.1162109375 2372.078369140625 2371.38037109375 2370.259765625 2369.1943359375 2367.988037109375 2366.12548828125 2364.94921875 2363.529541015625 2362.13525390625 2361.2626953125 2360.26513671875 2359.20166015625 2357.6806640625 2355.99755859375 2354.5390625 2351.659423828125 2349.580810546875 2346.75927734375 2344.1103515625 2342.122802734375 2341.229736328125 2340.179931640625 2338.134765625 2335.847412109375 2333.07958984375 2329.679443359375 2327.3798828125 2325.1708984375 2322.93408203125 2320.552978515625 2317.447998046875 2314.8544921875 2312.93896484375 2310.551513671875 2307.5751953125 2305.824462890625 2304.69970703125 2302.535400390625 2300.528076171875 2297.572509765625 2294.807861328125 2293.172119140625 2292.580810546875 2291.274658203125 2289.9404296875 2288.7890625 2288.506103515625 2287.58544921875 2286.63232421875 2285.14599609375 2283.727294921875 2281.6025390625 2279.65087890625 2277.01171875 2274.6884765625 2271.4443359375 2268.023193359375 2263.605224609375 2259.315673828125 2256.153076171875 2253.31982421875 2251.97216796875 2250.679443359375 2248.268798828125 2245.30615234375 2242.3955078125 2239.8369140625 2238.350830078125 2237.0830078125 2234.978271484375 2232.874755859375 2228.893798828125 2227.55078125 2223.35498046875 2219.8056640625 2217.251220703125 2218.601806640625 2219.098388671875 2217.32470703125 2217.803466796875 2217.475341796875 2216.576171875 2215.478515625 2214.228271484375 2212.76123046875 2210.62255859375 2209.263916015625 2207.214111328125 2205.359375 2202.752685546875 2199.53564453125 2196.887451171875 2194.01953125 2190.846923828125 2188.0556640625 2185.707763671875 2183.606689453125 2181.0703125 2178.062744140625 2175.27099609375 2172.5546875 2168.839111328125 2165.318115234375 2161.41357421875 2159.014892578125 2156.32861328125 2153.299072265625 2150.34423828125 2146.7548828125 2141.79296875 2135.333740234375 2128.01708984375 2120.151611328125 2112.42333984375
2538.605224609375 2531.952880859375 2527.4189453125 2523.588623046875 2520.121337890625 2517.155517578125 2513.42578125 2509.36962890625 2504.943115234375 2498.6953125 2494.546142578125 2491.122802734375 2487.546875 2484.44580078125 2480.3505859375 2475.63134765625 2472.07666015625 2468.521240234375 2465.3251953125 2463.65185546875 2461.9765625 2459.001220703125 2455.6357421875 2453.52783203125 2451.219970703125 2447.93310546875 2445.0703125 2443.791748046875 2443.63818359375 2440.46826171875 2436.869873046875 2430.61279296875 2426.1611328125 2424.424072265625 2422.693359375 2421.259765625 2418.880859375 2417.014892578125 2415.337158203125 2413.889404296875 2411.98876953125 2409.851806640625 2407.962646484375 2406.033935546875 2404.154541015625 2402.33544921875 2399.14990234375 2397.1943359375 2395.587890625 2394.031005859375 2393.17041015625 2392.5703125 2391.889892578125 2391.4873046875 2390.073486328125 2386.90380859375 2382.829345703125 2378.631103515625 2375.388671875 2372.813720703125 2370.45849609375 2369.527099609375 2368.150146484375 2367.193359375 2366.477783203125 2365.674560546875 2364.06494140625 2362.573486328125 2361.34716796875 2360.098388671875 2359.234375 2358.527587890625 2357.6337890625 2356.89306640625 2355.609375 2354.6572265625 2351.9755859375 2349.70263671875 2347.234375 2344.710205078125 2340.97607421875 2338.482666015625 2337.371826171875 2335.42333984375 2333.310302734375 2330.892578125 2327.414794921875 2323.58154296875 2321.643798828125 2319.994140625 2318.333251953125 2315.978271484375 2313.64453125 2311.405517578125 2309.19189453125 2306.517822265625 2304.316650390625 2302.192626953125 2300.1484375 2298.18603515625 2296.4521484375 2293.6630859375 2291.82861328125 2290.6181640625 2289.941650390625 2288.566162109375 2287.241455078125 2285.068359375 2283.759765625 2282.74169921875 2281.837646484375 2280.143310546875 2277.66015625 2274.290771484375 2271.91357421875 2269.761474609375 2266.75 2263.826416015625 2261.282470703125 2259.157470703125 2257.26171875 2254.28173828125 2252.100341796875 2248.5595703125 2246.96923828125 2244.812744140625 2243.221923828125 2241.9931640625 2240.245361328125 2238.22509765625 2236.28076171875 2233.846923828125 2231.187255859375 2228.43701171875 2224.7578125 2220.144775390625 2215.711181640625 2213.4052734375 2214.930908203125 2214.330810546875 2213.92724609375 2213.36962890625 2212.1123046875 2211.19189453125 2209.670654296875 2208.31982421875 2206.8896484375 2204.6396484375 2202.709228515625 2201.09375 2198.9970703125 2195.5087890625 2191.963623046875 2189.683349609375 2185.884521484375 2182.776123046875 2180.203369140625 2178.568115234375 2175.87158203125 2173.14013671875 2170.5625 2165.781494140625 2163.501220703125 2160.04638671875 2156.6357421875 2153.468505859375 2150.916015625 2148.187744140625 2145.960693359375 2143.1044921875 2139.573974609375 2135.471923828125 2129.74560546875 2123.02294921875 2117.15869140625
2541.111328125 2536.35009765625 2531.99267578125 2528.18896484375 2524.5908203125 2521.212890625 2517.0126953125 2512.896240234375 2506.50390625 2501.919189453125 2498.30029296875 2494.92431640625 2491.54541015625 2487.673095703125 2483.3076171875 2478.79638671875 2474.801513671875 2471.55712890625 2469.3076171875 2466.96630859375 2464.255615234375 2459.674072265625 2456.522705078125 2454.862548828125 2452.2255859375 2448.050048828125 2445.8427734375 2443.89599609375 2443.290771484375 2440.79345703125 2438.26123046875 2433.21484375 2427.10693359375 2424.06591796875 2422.068359375 2420.04638671875 2417.7685546875 2416.022705078125 2414.198486328125 2412.572998046875 2410.9208984375 2409.16845703125 2407.23046875 2405.5654296875 2403.562255859375 2401.703125 2399.4345703125 2397.100830078125 2394.74072265625 2393.10498046875 2391.752197265625 2390.704345703125 2389.80810546875 2388.855224609375 2388.702880859375 2387.8388671875 2384.894287109375 2380.464111328125 2376.0693359375 2372.700927734375 2370.12890625 2367.868408203125 2366.2177734375 2364.623779296875 2363.876708984375 2363.045654296875 2361.651611328125 2360.5654296875 2359.27978515625 2358.217529296875 2357.358642578125 2356.829833984375 2356.267578125 2355.142578125 2354.49072265625 2353.69189453125 2352.0458984375 2349.85595703125 2347.408447265625 2344.814697265625 2341.586669921875 2337.26318359375 2333.8876953125 2332.743896484375 2330.900634765625 2329.27490234375 2325.837158203125 2321.529541015625 2319.0751953125 2317.703857421875 2316.3798828125 2314.376708984375 2312.239990234375 2310.4619140625 2308.5009765625 2306.6201171875 2304.487548828125 2301.995849609375 2300.035400390625 2297.592529296875 2295.75 2293.557861328125 2291.3583984375 2289.32958984375 2288.571044921875 2287.39599609375 2285.70849609375 2284.246337890625 2282.97021484375 2281.733642578125 2280.128173828125 2277.89208984375 2276.628173828125 2275.040283203125 2274.183349609375 2273.373291015625 2269.423095703125 2267.0322265625 2264.575439453125 2262.732421875 2260.09375 2257.11962890625 2253.804443359375 2250.800537109375 2248.865966796875 2246.619140625 2244.395263671875 2241.80419921875 2240.16748046875 2237.832275390625 2235.57373046875 2233.154052734375 2230.26318359375 2227.57275390625 2224.01904296875 2220.328125 2216.129638671875 2212.068115234375 2210.4833984375 2211.032958984375 2210.465576171875 2209.47265625 2208.950927734375 2207.711669921875 2206.853759765625 2205.184326171875 2203.601318359375 2201.8583984375 2199.328369140625 2197.38671875 2194.875244140625 2191.42041015625 2187.61962890625 2184.74609375 2181.91650390625 2178.878662109375 2175.853515625 2173.5107421875 2171.53564453125 2168.728759765625 2164.51171875 2161.03466796875 2157.36279296875 2154.91748046875 2151.617919921875 2148.021728515625 2145.216796875 2142.542724609375 2140.39794921875 2138.1298828125 2134.759765625 2132.61669921875 2130.9658203125 2126.50634765625 2120.333740234375
2545.53662109375 2540.7265625 2536.6015625 2532.914794921875 2529.10546875 2525.272705078125 2520.976318359375 2515.805419921875 2509.068115234375 2506.042724609375 2502.29638671875 2498.676513671875 2494.889404296875 2490.869873046875 2486.2041015625 2481.903076171875 2477.8369140625 2475.74951171875 2473.099365234375 2470.01416015625 2465.37109375 2460.611083984375 2457.14599609375 2454.798583984375 2452.2216796875 2450.487060546875 2448.197998046875 2445.05810546875 2442.6533203125 2441.26708984375 2439.0302734375 2434.064208984375 2428.173583984375 2424.361328125 2421.799560546875 2419.714599609375 2417.33837890625 2415.3603515625 2413.479736328125 2411.352783203125 2409.48291015625 2407.7109375 2406.32568359375 2404.605712890625 2403.051025390625 2401.2138671875 2398.906005859375 2396.944580078125 2394.914306640625 2392.695068359375 2390.66796875 2389.1044921875 2387.70703125 2386.507568359375 2385.639404296875 2385.091552734375 2384.817138671875 2382.15869140625 2377.95166015625 2373.84521484375 2370.526123046875 2368.201904296875 2366.20849609375 2364.370361328125 2362.659423828125 2360.99169921875 2359.5302734375 2357.93505859375 2356.759521484375 2355.75146484375 2354.89794921875 2354.236328125 2353.748291015625 2353.40625 2352.800048828125 2351.7900390625 2350.390869140625 2348.23681640625 2346.07373046875 2344.1484375 2341.594482421875 2337.7568359375 2333.667724609375 2330.114990234375 2329.13916015625 2326.974609375 2323.900146484375 2320.51904296875 2316.998046875 2314.671142578125 2313.375 2311.913330078125 2310.587158203125 2309.337158203125 2307.740234375 2306.057861328125 2304.3701171875 2302.28125 2299.8505859375 2297.535400390625 2295.752685546875 2293.921142578125 2292.44873046875 2291.13623046875 2288.416259765625 2286.70751953125 2285.62353515625 2284.4404296875 2283.85302734375 2283.578125 2283.22900390625 2282.0556640625 2281.270263671875 2280.488525390625 2278.785888671875 2276.412841796875 2273.43798828125 2270.6484375 2267.979736328125 2265.443115234375 2261.3916015625 2258.49755859375 2255.4794921875 2252.6708984375 2250.129150390625 2247.10986328125 2244.615966796875 2242.017822265625 2239.70361328125 2237.06298828125 2234.92236328125 2232.388427734375 2228.96484375 2225.827392578125 2222.31591796875 2218.596923828125 2215.53271484375 2212.029541015625 2208.25390625 2206.83203125 2206.629150390625 2205.569580078125 2205.138671875 2204.3427734375 2204.09912109375 2202.789794921875 2200.996337890625 2199.20703125 2197.30322265625 2194.575927734375 2191.344482421875 2187.76220703125 2184.40283203125 2180.64306640625 2177.593017578125 2174.30224609375 2171.583984375 2168.120361328125 2166.39599609375 2164.543701171875 2160.843505859375 2155.7353515625 2151.96240234375 2149.2939453125 2146.415283203125 2143.3154296875 2140.129638671875 2137.742919921875 2135.55029296875 2132.349609375 2129.092529296875 2127.46923828125 2126.963623046875 2124.427978515625 2119.245849609375
