ncols               356
nrows               32
xllcorner    503500
yllcorner     169500
cellsize       1000.000
NODATA_value -999
-999.000 -999.000 -999.000 -999.000 -999.000 -999.000 -999.000 -999.000 -999.000 -999.000 -999.000 -999.000 -999.000 -999.000 -999.000 -999.000 -999.000 -999.000 -999.000 -999.000 -999.000 -999.000 -999.000 318.200 13.700 93.600 114.900 316.300 332.100 358.700 0.600 358.400 327.800 196.800 134.000 180.900 148.700 139.100 155.400 186.700 178.800 160.500 180.500 190.400 194.300 279.900 61.900 64.100 83.500 123.700 128.600 124.500 87.900 118.800 135.000 0.000 0.000 0.000 0.000 0.000 0.000 0.000 315.000 315.000 318.300 334.400 348.300 349.700 7.200 46.200 52.100 140.700 260.500 261.400 301.800 312.400 316.600 327.400 339.000 304.500 139.300 289.700 318.800 336.800 355.700 7.400 354.300 14.900 5.900 7.000 50.800 24.600 8.800 20.500 311.400 1.500 98.900 320.800 275.500 6.100 308.400 283.200 225.200 160.600 172.100 223.000 245.500 240.200 246.000 94.000 7.000 284.000 9.900 10.200 28.000 29.900 327.400 351.600 66.800 81.000 276.000 241.200 97.600 213.200 284.600 179.600 272.000 201.700 178.300 148.100 171.000 309.600 307.200 320.600 55.000 88.600 113.900 151.200 152.200 132.200 105.400 296.700 311.700 344.500 20.700 5.700 311.500 325.500 238.900 291.500 258.200 268.100 132.100 157.400 167.900 161.500 164.400 173.300 158.100 140.900 130.200 126.800 317.300 22.500 333.100 340.500 7.800 40.100 6.100 305.400 313.200 324.900 12.300 27.600 6.500 354.900 357.800 5.400 342.800 323.600 339.500 15.600 57.300 77.800 99.700 230.100 252.400 237.100 186.100 173.100 194.900 181.500 208.900 295.200 351.100 0.700 39.100 5.300 319.700 3.300 44.700 61.900 267.700 217.700 242.400 269.400 276.800 247.200 171.100 202.200 220.400 141.600 139.900 154.500 144.800 134.900 102.400 144.700 284.400 281.100 347.700 309.100 315.400 302.400 326.600 63.100 63.800 79.900 6.100 287.500 292.600 275.100 264.400 228.300 71.200 352.200 313.800 11.700 16.900 156.700 89.700 114.700 270.600 288.900 180.700 43.200 176.200 80.500 83.800 111.100 96.200 23.600 264.400 34.400 99.100 97.800 96.300 326.000 308.800 289.100 296.200 313.400 321.100 270.500 272.800 122.700 119.600 97.100 118.800 135.800 256.400 237.700 221.800 175.500 161.900 197.900 259.000 285.000 270.400 265.400 310.600 229.100 131.500 110.100 -999.000 -999.000 -999.000 -999.000 -999.000 -999.000 -999.000 -999.000 -999.000 -999.000 -999.000 -999.000 -999.000 -999.000 -999.000 -999.000 -999.000 -999.000 -999.000 -999.000 -999.000 -999.000 -999.000 -999.000 -999.000 -999.000 85.500 345.400 287.600 275.100 -999.000 157.900 93.800 50.900 6.100 243.800 11.900 73.500 297.600 272.800 152.400 138.700 111.500 101.800 95.400 -999.000 -999.000 -999.000 -999.000 -999.000 -999.000 -999.000 -999.000 -999.000 -999.000 -999.000 -999.000 -999.000 -999.000 -999.000 -999.000 -999.000 -999.000 -999.000 -999.000 -999.000 -999.000 -999.000 -999.000 -999.000 -999.000 -999.000
-999.000 -999.000 -999.000 -999.000 -999.000 -999.000 -999.000 -999.000 -999.000 -999.000 -999.000 -999.000 -999.000 -999.000 -999.000 -999.000 -999.000 -999.000 -999.000 -999.000 -999.000 -999.000 300.100 276.400 107.200 103.600 16.200 0.600 338.200 321.600 222.700 108.600 129.300 165.900 160.100 173.500 149.800 154.500 173.300 136.800 306.600 318.300 353.700 340.600 11.500 14.800 24.200 57.800 105.200 97.400 125.800 89.200 110.400 135.000 135.000 0.000 0.000 0.000 0.000 0.000 0.000 315.000 315.000 319.700 332.800 345.100 21.200 199.200 213.900 181.400 136.900 135.800 189.100 302.400 314.200 307.800 346.500 22.700 18.600 324.600 63.400 304.400 294.900 323.600 345.500 43.400 77.100 3.100 22.400 345.600 0.000 11.200 331.700 328.800 129.500 146.700 162.800 216.400 222.100 64.200 295.000 312.800 311.300 323.800 80.600 244.100 252.700 240.800 155.800 88.700 259.100 293.900 28.000 353.900 5.500 14.600 349.400 15.200 77.500 80.700 222.700 237.100 198.400 214.400 191.000 253.700 238.200 187.700 131.500 161.500 2.000 292.200 324.500 320.500 92.100 121.300 169.000 140.200 130.100 112.900 309.500 295.800 319.100 349.300 23.700 6.200 324.700 335.000 44.300 316.400 258.900 226.300 56.900 42.900 51.800 126.800 141.900 160.400 147.800 127.000 124.700 321.600 281.200 321.100 317.000 340.900 0.400 31.200 42.600 307.200 284.300 287.800 2.400 52.500 351.100 344.100 13.400 32.600 354.200 319.300 335.500 59.000 94.200 103.000 135.000 310.600 290.100 293.300 320.800 326.600 306.600 290.900 312.700 356.400 356.600 0.000 53.700 54.300 288.700 332.400 48.800 62.100 39.700 281.900 261.400 242.700 235.500 208.300 268.500 305.400 45.000 72.800 111.300 121.900 144.500 141.000 106.100 276.100 282.000 308.900 301.300 314.500 335.400 294.600 18.500 76.800 83.300 83.700 276.300 258.200 232.400 174.200 204.100 292.200 332.100 11.700 8.200 153.300 170.700 165.200 172.700 182.600 203.300 216.600 173.200 166.800 169.300 122.800 148.000 121.300 108.000 281.800 287.000 59.500 103.100 101.400 101.400 345.500 279.200 286.800 281.100 28.000 313.400 284.200 245.600 101.100 109.600 77.600 64.300 2.700 240.600 210.900 184.600 180.500 160.600 196.800 237.900 232.000 209.600 220.200 229.400 182.500 138.900 143.400 177.900 -999.000 -999.000 -999.000 -999.000 -999.000 -999.000 -999.000 -999.000 -999.000 -999.000 -999.000 -999.000 -999.000 -999.000 -999.000 -999.000 -999.000 -999.000 -999.000 -999.000 -999.000 -999.000 -999.000 -999.000 -999.000 79.700 5.200 265.400 203.800 187.800 178.700 52.700 26.000 16.200 317.000 2.900 29.400 300.700 79.400 118.400 125.200 110.000 108.200 -999.000 -999.000 -999.000 -999.000 -999.000 -999.000 -999.000 -999.000 -999.000 -999.000 -999.000 -999.000 -999.000 -999.000 -999.000 -999.000 -999.000 -999.000 -999.000 -999.000 -999.000 -999.000 -999.000 -999.000 -999.000 -999.000 -999.000 -999.000
-999.000 -999.000 -999.000 -999.000 -999.000 -999.000 -999.000 -999.000 -999.000 -999.000 -999.000 -999.000 -999.000 -999.000 -999.000 -999.000 -999.000 -999.000 -999.000 -999.000 -999.000 278.800 277.800 335.100 105.500 69.000 20.400 258.700 243.100 189.700 186.000 132.500 143.400 136.000 146.200 160.600 165.400 156.200 259.700 299.000 326.900 354.700 1.800 6.100 13.400 358.200 102.100 113.100 115.100 102.200 148.400 95.700 135.000 135.000 0.000 0.000 0.000 0.000 0.000 0.000 315.000 315.000 347.800 330.300 331.700 25.600 72.100 165.500 172.700 135.000 135.000 315.000 312.400 320.500 337.700 341.400 335.200 42.200 51.700 269.400 78.000 224.600 260.600 241.100 180.300 150.400 187.500 112.000 124.200 5.300 59.600 94.600 328.200 337.600 37.700 59.400 91.100 191.100 244.200 199.100 216.300 219.600 157.600 117.400 118.800 272.800 264.600 217.800 177.700 142.800 215.500 279.000 180.400 162.800 315.000 320.500 14.700 93.700 89.900 105.800 273.600 306.400 96.400 159.300 198.500 240.400 248.600 244.600 81.300 282.500 278.000 294.100 270.400 104.600 105.300 137.900 135.000 142.300 101.200 98.400 318.200 291.400 328.400 9.300 26.400 337.500 309.200 39.900 36.900 281.400 277.400 109.600 106.800 130.600 113.300 102.500 120.300 106.400 107.000 111.200 358.800 248.300 329.600 315.800 311.400 358.500 25.000 48.600 60.500 263.700 249.600 268.500 282.000 52.200 6.400 318.400 28.300 40.900 272.100 298.600 274.800 91.400 93.100 108.800 116.700 310.300 279.800 305.000 328.100 2.800 352.700 344.800 341.900 328.800 313.100 67.200 86.900 155.900 280.900 225.300 53.900 75.000 49.900 313.500 284.100 310.900 342.200 312.500 266.000 275.500 312.300 64.300 77.100 92.500 118.000 107.000 279.800 308.600 305.200 339.700 334.100 316.300 357.100 76.200 219.600 145.300 109.400 98.900 155.800 243.900 225.100 216.100 259.300 296.600 348.600 86.000 103.600 157.500 185.000 160.600 123.700 159.500 165.600 196.600 173.300 169.400 194.400 164.200 148.100 134.500 148.500 273.100 321.300 63.100 70.900 62.000 75.100 37.800 295.000 279.200 291.700 341.800 47.900 299.100 284.500 71.800 74.100 53.500 351.700 16.600 3.300 342.900 188.400 152.500 186.100 205.800 202.900 209.400 213.100 222.900 218.000 203.800 152.100 145.900 181.500 212.700 206.600 197.100 186.100 180.600 -999.000 -999.000 -999.000 -999.000 -999.000 -999.000 -999.000 -999.000 -999.000 -999.000 -999.000 -999.000 -999.000 -999.000 -999.000 -999.000 -999.000 -999.000 -999.000 -999.000 73.600 285.800 272.900 150.200 119.800 199.200 251.300 60.200 29.300 314.600 358.400 66.000 81.900 135.100 131.100 126.700 108.300 111.200 -999.000 -999.000 -999.000 -999.000 -999.000 -999.000 -999.000 -999.000 -999.000 -999.000 -999.000 -999.000 -999.000 -999.000 -999.000 -999.000 -999.000 -999.000 -999.000 -999.000 -999.000 -999.000 -999.000 -999.000 -999.000 -999.000 -999.000 -999.000
-999.000 -999.000 -999.000 -999.000 -999.000 -999.000 -999.000 -999.000 -999.000 -999.000 -999.000 -999.000 -999.000 -999.000 -999.000 -999.000 -999.000 -999.000 -999.000 -999.000 353.800 329.200 303.800 120.800 108.700 197.000 211.100 197.300 175.700 210.800 176.800 122.900 133.400 152.700 174.400 201.100 278.800 350.500 347.200 339.900 307.900 342.100 40.600 69.900 143.200 151.300 134.000 129.100 120.800 148.600 155.700 135.000 135.000 0.000 0.000 0.000 0.000 0.000 0.000 315.000 315.000 340.600 342.800 331.600 108.100 139.400 150.500 135.000 135.000 0.000 315.000 315.000 321.400 317.200 318.900 317.200 33.400 51.800 29.400 358.600 1.100 261.000 277.100 247.100 146.800 71.800 21.100 358.900 339.400 353.900 47.700 24.800 324.100 30.600 15.200 344.200 3.500 26.800 64.700 147.900 232.500 234.400 207.200 182.000 127.100 174.200 262.200 234.800 267.000 198.100 255.600 247.000 212.200 242.900 269.000 109.300 111.800 97.600 113.700 80.600 325.900 346.000 342.500 354.700 44.600 183.300 223.100 261.600 172.100 335.400 240.700 316.200 234.500 142.500 108.500 142.700 267.500 331.000 18.800 42.000 299.000 276.400 266.300 15.800 349.700 354.300 340.200 232.900 12.800 150.100 2.300 235.100 192.000 160.400 114.700 82.900 78.800 79.000 81.800 54.400 258.700 314.500 340.200 293.200 284.600 284.500 125.400 98.400 106.200 268.400 262.200 244.500 247.900 282.600 298.100 323.600 19.400 25.000 11.700 8.200 93.600 74.700 75.800 68.400 45.000 225.000 250.300 235.500 229.300 262.000 291.600 341.600 330.800 311.800 274.700 92.500 92.400 17.100 276.300 343.200 26.200 47.500 66.900 13.600 266.100 252.200 234.500 280.700 267.900 208.800 111.000 128.400 109.100 115.800 95.800 317.500 285.300 301.700 308.000 283.200 315.400 323.400 13.100 84.000 106.800 133.100 127.900 114.600 240.900 283.400 306.000 318.200 323.200 289.700 340.900 99.400 52.700 19.100 10.900 12.400 10.900 7.200 8.700 307.600 194.400 151.700 155.400 152.500 128.900 142.200 300.200 309.700 22.000 67.000 68.800 61.800 71.800 30.200 296.100 264.600 294.100 334.900 49.200 306.200 294.400 62.700 55.800 41.300 335.200 359.100 22.800 31.900 352.000 329.500 5.800 10.400 186.200 205.700 210.900 219.000 222.400 198.800 154.800 20.900 245.700 267.100 222.600 194.700 185.800 202.600 239.200 -999.000 -999.000 -999.000 -999.000 -999.000 -999.000 -999.000 -999.000 -999.000 -999.000 -999.000 -999.000 -999.000 -999.000 -999.000 -999.000 -999.000 -999.000 68.500 69.600 338.900 302.200 45.600 69.500 154.500 210.300 207.800 187.600 223.800 128.400 145.700 146.000 143.100 142.800 129.500 123.400 122.500 -999.000 -999.000 -999.000 -999.000 -999.000 -999.000 -999.000 -999.000 -999.000 -999.000 -999.000 -999.000 -999.000 -999.000 -999.000 -999.000 -999.000 -999.000 -999.000 -999.000 -999.000 -999.000 -999.000 -999.000 -999.000 -999.000 -999.000 -999.000
-999.000 -999.000 -999.000 -999.000 -999.000 -999.000 -999.000 -999.000 -999.000 -999.000 -999.000 -999.000 -999.000 -999.000 -999.000 -999.000 -999.000 -999.000 -999.000 -999.000 13.300 36.500 139.700 166.800 187.600 167.900 172.400 171.200 159.700 174.300 188.800 165.400 155.700 162.300 268.100 335.600 346.900 347.800 329.900 307.700 292.000 203.000 145.200 151.400 149.400 142.800 134.800 131.700 127.100 152.700 135.000 135.000 0.000 0.000 0.000 0.000 0.000 315.000 315.000 315.100 298.100 307.000 223.300 185.300 181.000 153.800 134.200 135.000 0.000 315.000 315.000 309.700 301.400 285.600 308.300 346.200 67.500 54.300 61.700 315.000 72.000 287.400 268.200 280.400 308.000 358.600 357.600 338.100 303.000 83.100 27.700 333.600 343.500 2.600 64.700 341.700 336.800 29.700 42.200 70.200 181.300 242.400 229.600 221.300 286.900 205.700 247.000 231.000 190.100 244.300 274.900 286.300 279.700 14.000 237.100 233.700 142.000 100.200 125.700 94.400 282.200 281.900 328.200 5.600 31.700 0.300 275.400 150.300 142.600 267.200 261.700 251.900 161.700 118.000 129.100 103.800 344.900 332.200 337.200 36.300 324.200 265.300 316.700 320.000 12.100 354.000 335.700 42.200 5.100 275.400 314.800 306.500 42.700 26.600 49.200 70.200 76.900 95.700 95.100 341.300 267.500 316.700 300.900 268.300 269.200 162.400 104.700 70.700 83.100 354.500 288.400 285.700 301.700 351.800 340.600 331.300 28.300 68.800 92.800 192.800 194.900 129.000 111.800 93.500 54.600 225.000 249.600 239.300 235.700 205.800 195.000 216.700 205.500 230.700 143.500 94.700 46.200 335.900 297.400 350.800 57.700 34.900 78.300 353.900 270.800 253.500 301.500 349.600 90.300 147.500 182.700 166.500 146.200 117.700 94.600 306.300 295.400 263.800 290.100 253.100 241.500 295.800 144.200 112.000 136.100 133.300 145.700 356.100 7.200 348.300 325.600 312.800 303.100 285.600 325.700 89.400 52.500 3.400 332.600 341.600 1.600 6.600 15.200 7.400 16.600 26.900 47.400 70.700 18.900 309.700 313.500 333.500 24.600 94.100 94.500 107.000 99.000 141.400 262.900 275.200 263.200 309.400 81.500 319.600 292.600 32.100 63.600 49.200 317.800 321.300 32.500 38.200 1.100 344.300 8.900 16.900 12.900 347.800 225.200 208.700 210.000 197.500 185.000 221.900 297.900 332.100 329.700 322.300 48.000 249.700 254.700 221.800 291.800 305.300 -999.000 -999.000 -999.000 -999.000 -999.000 -999.000 -999.000 -999.000 -999.000 -999.000 -999.000 -999.000 -999.000 -999.000 -999.000 67.200 53.900 340.500 49.900 82.700 67.700 166.600 206.200 210.000 214.700 221.000 165.800 128.700 138.900 129.600 139.400 132.100 123.600 -999.000 -999.000 -999.000 -999.000 -999.000 -999.000 -999.000 -999.000 -999.000 -999.000 -999.000 -999.000 -999.000 -999.000 -999.000 -999.000 -999.000 -999.000 -999.000 -999.000 -999.000 -999.000 -999.000 -999.000 -999.000 -999.000 -999.000 -999.000 -999.000
-999.000 -999.000 -999.000 -999.000 -999.000 -999.000 -999.000 -999.000 -999.000 -999.000 -999.000 -999.000 -999.000 -999.000 -999.000 -999.000 -999.000 -999.000 -999.000 -999.000 -999.000 144.100 161.000 150.100 171.000 299.700 317.000 59.800 119.700 179.700 167.100 128.700 136.400 329.800 316.900 315.300 325.500 316.000 322.800 338.200 279.500 154.400 135.500 139.100 137.900 137.400 138.400 130.800 135.000 135.000 135.000 0.000 0.000 0.000 0.000 0.000 0.000 315.000 315.000 294.800 294.300 168.600 158.900 173.900 135.400 131.800 100.100 335.700 315.800 327.400 328.800 313.200 292.200 309.200 345.000 275.300 108.500 75.400 88.000 33.700 158.300 296.100 245.200 280.300 273.300 176.600 317.600 229.400 259.000 147.500 25.900 312.300 343.100 23.800 330.300 315.500 6.400 57.100 64.400 63.500 238.900 222.700 211.000 206.900 234.200 259.900 205.600 279.200 258.500 314.100 155.100 252.700 212.700 191.500 202.800 200.100 138.100 90.400 359.900 339.100 8.800 263.600 256.300 338.900 35.000 34.700 0.800 299.500 350.400 139.400 271.300 203.300 200.200 120.600 117.900 325.200 314.200 324.300 36.200 61.600 281.300 274.200 294.500 310.100 330.000 3.400 67.800 11.400 230.900 345.000 84.200 67.100 34.400 64.900 167.400 120.700 115.100 113.100 105.200 229.600 294.200 296.900 302.100 293.000 299.800 355.700 41.800 63.300 69.800 299.700 286.700 315.600 326.600 322.500 343.300 51.200 134.700 152.900 141.200 143.700 135.400 344.800 96.900 83.400 88.500 135.000 267.400 285.900 278.700 278.000 244.900 172.800 190.300 194.400 210.400 282.000 27.800 325.900 328.700 30.800 138.100 89.200 92.800 49.500 316.800 306.500 31.400 101.400 181.500 174.800 172.200 78.100 76.200 76.000 50.400 281.600 308.900 23.500 310.500 270.800 249.800 168.100 125.500 139.300 132.200 104.300 334.600 333.000 343.400 346.600 314.000 321.300 297.900 246.800 133.900 110.200 137.400 250.400 212.900 236.000 327.100 18.900 33.800 44.000 34.900 59.500 101.200 69.800 316.800 287.000 293.200 345.200 98.000 104.200 102.600 103.200 107.100 244.500 279.700 282.800 257.900 295.300 67.100 343.700 309.600 41.200 69.700 31.900 291.100 324.800 39.600 38.700 346.500 336.000 24.900 30.000 26.600 20.600 7.800 296.700 211.200 197.000 195.300 215.800 269.100 253.000 11.100 338.400 337.500 352.900 331.500 133.900 148.400 230.200 184.700 -999.000 -999.000 -999.000 -999.000 -999.000 -999.000 -999.000 -999.000 -999.000 -999.000 -999.000 -999.000 -999.000 -999.000 -999.000 57.000 99.400 146.200 134.400 148.700 129.700 164.400 236.500 240.500 247.900 143.600 108.800 128.800 129.200 128.500 110.000 96.300 -999.000 -999.000 -999.000 -999.000 -999.000 -999.000 -999.000 -999.000 -999.000 -999.000 -999.000 -999.000 -999.000 -999.000 -999.000 -999.000 -999.000 -999.000 -999.000 -999.000 -999.000 -999.000 -999.000 -999.000 -999.000 -999.000 -999.000 -999.000 -999.000
-999.000 -999.000 -999.000 -999.000 -999.000 -999.000 -999.000 -999.000 -999.000 -999.000 -999.000 -999.000 -999.000 -999.000 -999.000 -999.000 -999.000 -999.000 -999.000 -999.000 -999.000 -999.000 10.000 3.900 354.200 1.000 13.300 60.200 68.200 117.000 308.900 324.800 348.200 337.400 322.200 314.200 315.500 321.400 51.900 183.900 165.000 142.600 134.200 133.700 133.600 133.700 138.800 135.000 135.000 0.000 0.000 0.000 0.000 0.000 315.000 315.000 316.500 317.100 304.500 319.000 335.500 113.600 127.000 134.000 130.500 42.600 351.900 333.700 334.700 317.800 308.400 319.700 316.100 338.100 164.200 186.300 162.500 137.000 98.000 87.100 131.000 212.700 265.300 222.300 200.300 195.300 193.500 246.800 226.000 11.800 242.100 341.100 57.900 338.900 323.300 295.100 321.100 24.500 64.000 57.500 46.400 231.400 234.000 186.600 236.900 238.700 283.400 286.400 306.300 316.400 52.600 185.200 190.500 169.100 190.400 189.500 124.900 150.300 322.500 336.900 28.800 29.300 217.700 249.000 189.800 45.800 335.200 345.400 38.900 3.800 266.200 178.900 144.700 160.000 336.700 317.000 313.700 335.400 56.500 91.100 191.700 291.000 258.900 303.200 329.900 39.400 40.500 76.300 286.800 336.300 137.600 119.200 156.200 158.800 149.900 128.000 120.000 104.400 149.200 281.300 313.100 300.200 296.900 300.000 308.300 26.200 91.100 107.600 84.300 201.000 263.500 246.600 251.300 261.900 283.500 153.600 99.900 109.800 66.300 5.600 29.100 12.300 347.900 55.400 79.000 43.300 229.000 257.500 258.700 231.200 167.300 180.800 206.800 208.000 204.800 183.100 255.000 283.500 297.900 1.600 70.500 44.400 47.400 25.000 317.800 331.200 143.500 166.100 155.700 110.100 9.400 8.200 48.700 71.400 6.300 284.600 299.900 18.900 24.500 291.100 286.100 103.100 108.500 124.200 85.400 350.700 317.500 331.600 3.500 1.200 330.700 322.600 300.600 182.000 216.200 144.900 124.100 153.100 217.700 221.600 215.900 216.700 136.200 126.500 130.400 133.100 116.900 88.600 273.100 288.100 269.300 82.800 124.800 104.900 108.900 100.700 136.000 304.800 299.700 287.700 288.100 299.100 349.000 354.400 332.000 57.400 49.700 37.700 320.400 317.100 56.100 33.200 330.700 344.000 21.500 39.700 22.700 16.800 18.300 24.600 6.700 359.400 215.000 233.000 231.600 204.400 186.100 206.700 198.600 184.300 256.600 141.500 199.600 218.500 206.400 240.200 -999.000 -999.000 -999.000 -999.000 -999.000 -999.000 -999.000 -999.000 -999.000 -999.000 -999.000 -999.000 -999.000 138.400 67.000 124.600 86.600 82.100 191.700 42.700 108.600 302.100 257.900 234.200 107.500 126.000 126.600 136.400 140.000 320.800 326.600 310.400 -999.000 -999.000 -999.000 -999.000 -999.000 -999.000 -999.000 -999.000 -999.000 -999.000 -999.000 -999.000 -999.000 -999.000 -999.000 -999.000 -999.000 -999.000 -999.000 -999.000 -999.000 -999.000 -999.000 -999.000 -999.000 -999.000 -999.000 -999.000
-999.000 -999.000 -999.000 -999.000 -999.000 -999.000 -999.000 -999.000 -999.000 -999.000 -999.000 -999.000 -999.000 -999.000 -999.000 -999.000 -999.000 -999.000 -999.000 -999.000 -999.000 -999.000 353.400 357.200 345.500 320.300 132.800 118.200 130.800 266.600 338.500 0.000 357.600 344.600 324.500 334.400 344.100 181.600 162.800 158.800 166.100 130.000 127.300 128.400 124.700 116.300 135.000 135.000 0.000 0.000 0.000 0.000 0.000 0.000 315.000 315.000 330.200 335.700 307.000 275.300 151.900 110.100 112.200 132.500 29.600 21.200 320.200 319.300 2.400 329.300 302.700 318.500 300.000 0.200 115.400 336.000 357.500 94.600 30.400 304.500 10.200 291.700 304.200 197.600 234.000 166.400 174.500 195.200 194.500 192.600 245.400 251.600 8.900 308.400 315.400 321.100 342.200 16.500 19.900 41.700 51.200 34.600 234.900 238.300 229.200 241.700 267.200 270.200 293.100 302.500 82.200 135.800 244.300 279.900 291.700 329.600 40.700 262.600 305.300 326.900 26.100 58.700 308.700 266.700 275.400 29.600 354.900 326.400 7.700 47.300 51.300 24.600 333.900 284.500 316.400 308.400 285.900 351.800 86.400 83.900 2.700 282.900 256.400 301.600 210.500 11.500 97.000 113.200 107.100 175.600 198.100 137.500 142.600 154.100 141.900 134.800 118.100 119.900 213.100 302.400 305.000 306.600 288.300 293.700 329.400 47.600 111.300 101.700 93.600 245.900 257.400 225.900 217.700 217.800 240.300 128.100 40.900 70.100 42.700 289.300 42.700 340.800 327.300 67.200 67.200 44.400 226.700 226.600 224.600 196.700 172.500 176.700 190.200 201.200 210.400 202.800 189.500 210.300 210.900 176.300 55.500 47.100 341.800 338.500 330.200 114.200 95.800 125.300 0.600 351.200 356.600 330.100 97.100 86.300 346.400 286.000 306.900 18.800 28.700 303.400 310.100 45.400 54.000 45.100 26.900 329.900 308.300 330.200 14.500 25.600 300.000 10.000 129.900 128.000 183.500 246.200 26.700 110.300 103.100 211.300 241.900 229.500 115.200 102.900 106.400 119.000 100.300 317.500 290.300 294.300 119.100 123.300 132.800 128.800 117.400 120.300 199.700 299.300 288.900 298.100 306.600 308.700 345.400 333.400 327.200 21.900 36.200 11.500 331.900 316.200 45.000 34.300 326.500 339.000 25.500 35.400 19.100 6.500 9.300 15.600 30.900 37.300 1.300 234.800 215.500 208.600 185.700 191.700 202.500 178.800 174.500 159.100 173.500 237.300 228.700 241.200 -999.000 -999.000 -999.000 -999.000 -999.000 -999.000 -999.000 -999.000 -999.000 -999.000 178.200 157.500 155.400 181.500 198.500 112.300 45.200 12.000 30.200 58.000 82.400 233.700 237.500 214.800 140.400 130.100 125.000 114.400 6.000 301.000 314.600 316.100 -999.000 -999.000 -999.000 -999.000 -999.000 -999.000 -999.000 -999.000 -999.000 -999.000 -999.000 -999.000 -999.000 -999.000 -999.000 -999.000 -999.000 -999.000 -999.000 -999.000 -999.000 -999.000 -999.000 -999.000 -999.000 -999.000 -999.000 -999.000
-999.000 -999.000 -999.000 -999.000 -999.000 -999.000 -999.000 -999.000 -999.000 -999.000 -999.000 -999.000 -999.000 -999.000 -999.000 -999.000 -999.000 -999.000 -999.000 -999.000 -999.000 -999.000 206.400 184.400 161.700 158.300 159.800 23.000 5.000 4.500 348.000 352.100 351.000 335.500 8.700 359.300 227.700 152.600 121.500 110.000 80.000 93.400 100.700 115.000 116.400 123.100 135.000 0.000 0.000 0.000 0.000 0.000 0.000 315.000 314.500 334.300 346.000 316.400 261.600 159.200 157.200 130.700 132.000 327.000 332.000 321.900 318.700 337.500 341.900 306.000 305.300 273.700 275.200 35.700 357.700 9.600 35.300 18.200 61.800 358.900 335.300 351.100 354.400 344.600 6.000 49.400 320.100 273.600 330.200 139.900 333.400 318.900 332.900 333.200 269.400 269.800 285.500 280.700 50.400 78.200 77.000 334.600 332.100 43.900 245.200 260.700 234.700 258.700 220.700 198.400 148.100 172.000 315.400 351.500 355.600 355.000 325.500 339.500 338.600 319.600 22.600 65.500 51.500 257.700 259.200 236.400 251.800 287.300 81.700 60.700 84.500 44.300 243.700 300.900 300.700 300.300 294.900 95.800 105.700 93.900 292.800 264.900 259.000 200.800 224.300 188.600 124.900 87.700 105.900 141.800 129.000 145.200 143.800 145.800 147.100 129.300 126.500 137.400 286.700 308.100 303.400 303.500 297.400 297.200 346.400 83.100 101.600 87.900 179.000 306.800 292.600 308.500 278.900 294.200 304.800 61.200 96.700 80.300 319.500 281.900 33.800 342.200 338.200 55.300 57.500 54.000 42.700 229.300 227.700 206.300 174.600 213.400 212.400 174.400 193.900 205.900 204.400 206.800 202.600 182.300 159.400 173.800 217.800 223.800 217.500 104.400 72.900 10.100 329.800 323.500 14.200 87.600 80.600 79.500 316.900 291.900 296.200 354.000 359.000 331.400 15.300 50.000 18.200 21.100 5.800 307.400 301.100 336.100 86.300 147.900 204.200 126.000 129.100 153.900 182.200 198.200 178.100 46.600 140.400 246.800 226.700 218.900 119.100 120.300 89.000 108.500 70.200 287.800 287.800 258.300 129.500 137.600 136.200 138.300 128.400 139.100 276.000 289.000 292.200 283.800 293.200 259.900 243.000 229.400 121.200 76.000 321.600 316.000 262.000 317.400 33.700 348.700 352.700 66.900 19.200 28.800 356.800 355.100 10.500 20.500 37.100 50.300 28.900 292.100 276.700 239.100 206.500 186.600 208.600 218.300 198.000 82.800 172.700 316.800 225.400 251.400 277.400 292.900 281.100 -999.000 -999.000 -999.000 -999.000 -999.000 -999.000 150.900 152.700 148.500 180.500 214.400 206.700 119.600 57.400 77.600 5.500 89.000 80.400 130.600 213.200 192.400 158.700 127.000 124.900 62.400 292.000 299.300 318.200 315.500 -999.000 -999.000 -999.000 -999.000 -999.000 -999.000 -999.000 -999.000 -999.000 -999.000 -999.000 -999.000 -999.000 -999.000 -999.000 -999.000 -999.000 -999.000 -999.000 -999.000 -999.000 -999.000 -999.000 -999.000 -999.000 -999.000 -999.000 -999.000
-999.000 -999.000 -999.000 -999.000 -999.000 -999.000 -999.000 -999.000 -999.000 -999.000 -999.000 -999.000 -999.000 -999.000 -999.000 -999.000 -999.000 -999.000 -999.000 -999.000 -999.000 -999.000 158.000 157.400 164.300 149.200 0.300 315.100 359.800 349.200 329.200 0.300 32.700 294.600 298.400 291.200 88.800 74.600 67.500 63.500 95.300 89.400 114.400 116.400 102.200 135.000 270.000 0.000 0.000 0.000 0.000 0.000 315.000 315.000 330.300 324.100 323.600 85.300 151.500 181.800 156.000 130.900 127.300 331.100 321.500 319.900 305.800 331.900 0.000 314.700 331.700 334.600 325.100 304.700 19.100 85.500 37.600 169.500 22.800 309.500 331.700 331.500 4.100 27.400 337.100 353.000 4.900 344.000 335.600 357.700 335.500 305.700 323.700 326.800 326.400 102.500 293.600 229.700 138.600 99.300 92.500 323.800 316.600 47.500 43.100 251.100 248.600 238.600 234.100 186.700 118.300 267.800 305.400 316.200 331.800 358.700 345.700 351.800 30.700 353.800 254.100 79.200 106.600 222.300 226.200 226.600 219.000 292.500 156.500 84.300 93.600 97.100 193.700 286.900 257.200 242.900 235.400 175.700 106.200 95.900 104.800 237.700 240.300 221.500 246.100 197.200 102.300 72.500 77.100 104.800 119.700 139.400 143.000 150.900 153.700 146.600 135.000 287.100 297.400 302.500 311.200 304.300 304.200 300.000 299.000 106.900 97.400 102.800 272.200 303.500 341.700 0.400 335.800 317.300 294.700 328.700 14.600 64.800 13.400 315.600 10.600 26.100 17.700 77.100 70.700 74.800 45.300 37.200 242.100 291.400 291.300 359.400 333.100 305.600 345.000 229.500 151.900 191.000 206.300 196.000 190.800 203.300 227.100 237.600 148.700 73.600 27.700 323.800 324.800 17.400 37.800 38.500 75.900 43.600 278.200 304.200 269.800 6.800 97.200 268.000 333.400 127.100 44.300 50.800 12.100 279.600 285.400 176.900 150.200 142.800 176.400 157.800 133.400 146.900 166.000 194.700 213.000 175.000 130.800 146.800 217.300 223.800 179.400 127.100 111.800 100.500 153.100 277.100 225.000 157.300 149.300 149.000 148.000 146.500 134.500 155.300 301.700 290.100 301.900 274.200 220.800 220.400 192.500 187.400 186.600 174.300 188.800 184.500 195.800 256.500 134.600 122.200 189.000 221.700 203.300 47.100 339.500 355.900 59.500 96.700 101.100 88.600 7.800 339.300 351.600 347.500 345.000 23.800 11.400 307.900 321.000 359.900 351.300 322.100 310.200 295.100 333.000 291.400 261.500 123.900 -999.000 194.700 195.400 171.200 153.900 155.100 135.900 154.200 228.500 326.100 254.800 61.400 183.300 201.000 114.300 94.400 64.600 33.900 51.300 141.100 154.800 160.700 143.400 291.300 294.200 308.600 317.500 -999.000 -999.000 -999.000 -999.000 -999.000 -999.000 -999.000 -999.000 -999.000 -999.000 -999.000 -999.000 -999.000 -999.000 -999.000 -999.000 -999.000 -999.000 -999.000 -999.000 -999.000 -999.000 -999.000 -999.000 -999.000 -999.000 -999.000 -999.000 -999.000
-999.000 -999.000 -999.000 -999.000 -999.000 -999.000 -999.000 -999.000 -999.000 -999.000 -999.000 -999.000 -999.000 -999.000 -999.000 -999.000 -999.000 -999.000 -999.000 -999.000 -999.000 -999.000 150.400 161.700 119.100 336.600 346.600 311.800 302.300 22.000 134.100 107.300 181.600 197.000 134.100 139.100 143.200 162.600 172.200 165.400 151.500 144.800 140.500 135.500 134.800 135.000 270.000 0.000 0.000 0.000 0.000 315.000 315.000 323.300 310.200 326.500 120.000 138.200 148.600 132.100 127.500 56.100 331.800 317.600 320.100 325.200 337.600 10.700 296.300 334.500 11.300 324.800 302.800 297.000 112.800 84.000 107.400 277.100 328.100 319.600 322.100 5.500 66.600 323.000 318.400 28.600 331.800 303.800 325.300 59.600 68.700 269.600 277.900 311.000 319.200 320.900 298.900 24.900 118.600 102.700 92.700 260.900 309.600 73.500 52.100 34.200 271.500 259.000 302.600 103.300 0.700 281.500 306.600 329.200 344.200 1.400 353.700 6.700 103.200 160.300 151.800 142.500 113.800 200.600 288.300 282.800 264.600 265.600 345.500 108.500 64.200 61.700 310.500 277.300 281.900 217.700 154.900 344.200 19.300 65.200 32.700 266.600 251.900 297.200 268.300 195.400 191.600 164.600 124.200 115.600 124.500 128.000 144.100 163.100 145.800 135.000 315.000 299.500 311.700 314.100 5.800 259.400 249.200 257.900 170.200 100.000 100.800 55.900 296.100 313.300 331.700 346.400 338.800 328.200 335.000 27.400 24.600 21.200 349.800 329.900 2.000 90.700 69.100 106.800 99.700 66.700 69.800 44.000 304.300 290.100 310.400 290.700 332.000 15.900 345.500 328.100 15.000 26.200 336.000 307.100 323.900 332.400 313.700 316.000 5.700 12.700 326.800 333.100 340.600 1.000 40.600 90.900 46.900 312.400 297.300 310.700 230.100 227.700 237.100 137.000 119.500 155.600 156.200 103.700 176.100 239.600 169.800 168.500 188.500 128.700 130.500 148.700 152.800 151.300 153.500 178.200 191.600 190.000 158.100 153.500 204.000 218.500 197.600 145.900 123.400 110.500 139.200 211.300 194.400 167.300 159.400 151.000 142.700 134.000 323.500 330.700 328.000 282.500 254.800 232.300 189.000 182.800 193.700 198.600 190.400 181.600 183.200 190.800 210.700 215.500 197.800 164.900 211.600 252.400 327.300 334.400 351.900 22.600 98.300 113.900 132.100 103.600 113.700 336.500 327.500 341.800 1.100 28.100 33.500 312.300 309.000 320.200 358.300 344.000 336.900 337.300 296.500 242.000 8.900 154.500 131.700 150.600 227.100 185.500 127.900 120.200 128.700 317.600 281.600 322.800 71.600 118.000 170.200 154.000 164.200 149.200 115.300 109.100 112.000 156.700 188.700 227.600 17.300 346.700 294.100 299.600 289.500 -999.000 -999.000 -999.000 -999.000 -999.000 -999.000 -999.000 -999.000 -999.000 -999.000 -999.000 -999.000 -999.000 -999.000 -999.000 -999.000 -999.000 -999.000 -999.000 -999.000 -999.000 -999.000 -999.000 -999.000 -999.000 -999.000 -999.000 -999.000 -999.000
-999.000 -999.000 -999.000 -999.000 -999.000 -999.000 -999.000 -999.000 -999.000 -999.000 -999.000 -999.000 -999.000 -999.000 -999.000 -999.000 -999.000 -999.000 -999.000 -999.000 -999.000 -999.000 38.900 14.600 87.100 4.100 276.000 301.600 62.500 128.500 173.100 146.300 141.300 149.400 169.600 178.100 168.100 166.700 167.200 164.600 153.500 150.800 155.100 135.000 135.000 270.000 270.000 0.000 0.000 0.000 315.000 315.000 313.900 318.200 307.000 106.500 111.700 115.300 130.000 110.900 16.100 324.700 319.000 321.900 333.600 337.300 322.900 321.500 285.200 320.400 351.100 331.700 19.500 72.000 145.800 96.400 217.500 329.100 319.600 332.100 342.700 341.200 15.600 355.200 321.200 3.900 353.100 298.900 189.500 31.900 270.400 275.400 306.300 227.200 211.500 49.500 293.000 313.100 34.400 85.500 84.600 266.900 276.700 57.700 83.700 42.800 263.300 269.700 286.400 334.900 340.200 289.400 304.600 314.300 60.600 187.500 208.100 186.300 128.900 136.900 265.600 61.500 46.400 67.400 356.400 266.600 280.800 235.200 357.700 85.400 84.200 41.300 314.900 294.400 348.000 357.900 309.800 329.800 43.800 69.900 51.600 308.400 307.000 333.800 289.300 174.800 119.800 154.400 137.000 130.200 132.100 128.900 141.300 131.900 129.400 315.000 321.100 323.100 321.600 337.500 323.900 269.000 231.500 229.900 189.000 94.200 99.700 24.500 281.700 282.200 301.800 6.700 13.200 300.700 292.100 317.900 317.300 13.600 17.200 318.800 346.100 97.400 68.000 78.800 36.400 49.300 88.500 60.400 305.500 280.700 304.700 4.000 287.400 322.200 4.300 11.000 42.700 17.700 328.800 335.100 347.700 331.600 324.900 315.600 329.900 5.300 1.200 341.100 86.900 121.900 136.700 124.600 23.500 282.800 327.200 41.500 340.800 239.800 274.500 50.900 154.800 107.000 149.900 171.900 197.900 203.900 157.500 176.100 226.200 165.300 43.000 75.700 93.600 97.300 116.600 162.600 191.400 191.400 169.100 157.600 182.600 212.100 195.500 158.000 135.200 138.400 157.100 189.400 179.900 156.300 154.000 134.100 341.300 321.600 337.700 10.100 27.200 233.000 202.300 171.100 169.200 198.700 204.800 186.000 197.600 183.300 189.700 198.400 208.800 216.600 197.800 162.600 268.500 285.600 318.200 321.100 274.800 11.900 85.200 88.600 75.500 346.700 294.200 314.000 343.900 291.700 305.600 38.700 73.900 314.000 288.300 208.400 66.600 177.700 227.600 246.000 209.600 165.600 273.300 214.900 90.000 105.200 196.500 257.300 171.200 90.400 97.600 189.700 257.300 217.700 109.500 126.900 149.600 150.300 158.500 155.500 160.100 155.400 139.500 125.100 309.900 328.400 342.500 339.300 299.700 267.700 261.600 -999.000 -999.000 -999.000 -999.000 -999.000 -999.000 -999.000 -999.000 -999.000 -999.000 -999.000 -999.000 -999.000 -999.000 -999.000 -999.000 -999.000 -999.000 -999.000 -999.000 -999.000 -999.000 -999.000 -999.000 -999.000 -999.000 -999.000 -999.000 -999.000
-999.000 -999.000 -999.000 -999.000 -999.000 -999.000 -999.000 -999.000 -999.000 -999.000 -999.000 -999.000 -999.000 -999.000 -999.000 -999.000 -999.000 -999.000 -999.000 -999.000 -999.000 -999.000 324.100 4.400 328.500 291.000 325.200 266.100 352.500 131.800 132.000 132.600 154.300 169.600 169.800 165.200 163.600 161.300 155.300 150.800 146.500 139.800 135.200 135.000 135.000 270.000 270.000 0.000 315.000 315.000 315.300 322.200 313.900 294.900 153.400 126.400 135.100 133.200 122.800 35.100 315.400 319.500 317.000 316.000 327.900 325.800 12.400 187.100 328.300 321.700 340.000 358.700 72.900 19.300 156.600 110.400 330.800 307.500 298.300 293.800 343.800 50.600 31.300 297.000 306.800 347.800 315.200 333.000 251.500 80.200 42.800 334.800 315.900 272.100 224.900 204.600 275.600 300.400 27.800 67.400 76.900 241.700 273.200 160.000 84.800 85.400 249.300 263.500 260.400 117.700 133.700 238.500 228.600 218.000 221.600 185.400 168.600 141.300 91.800 49.800 332.400 352.000 6.500 27.800 335.000 250.800 276.000 271.800 279.600 84.500 62.700 310.500 283.700 323.200 313.600 332.900 330.900 337.200 54.500 89.500 69.100 292.900 324.700 335.300 329.200 92.800 132.500 132.700 140.100 133.400 108.300 119.000 121.900 42.300 316.900 317.300 331.700 332.200 314.900 355.700 64.800 33.600 273.600 266.000 330.800 56.000 77.100 35.500 266.300 246.200 230.900 169.900 180.100 210.800 227.900 247.400 171.900 100.600 111.000 242.000 188.900 92.900 103.100 117.700 96.300 92.200 88.900 75.300 307.900 298.200 321.200 347.000 333.100 342.800 265.400 11.700 110.400 95.300 277.500 308.700 333.000 356.000 321.200 329.600 4.900 353.300 333.300 70.500 129.500 165.200 159.400 92.800 211.400 285.800 9.600 89.400 338.300 260.800 286.700 70.100 120.700 103.500 120.300 170.900 206.300 202.600 150.600 152.500 247.900 192.400 86.900 61.300 85.300 98.700 108.800 137.000 149.600 182.700 164.900 149.700 169.700 203.400 200.900 175.100 162.200 138.000 154.400 191.700 159.100 142.800 124.900 326.300 325.100 330.900 331.300 21.000 35.300 304.600 276.600 318.000 26.800 129.700 189.600 211.700 218.100 202.600 206.200 193.700 202.100 203.100 192.800 192.400 217.700 247.700 225.800 214.000 187.700 144.700 102.600 102.900 81.900 298.000 325.100 320.600 290.000 291.100 310.000 26.600 45.700 48.700 269.100 245.100 251.400 268.600 17.000 348.500 198.300 117.000 166.200 230.000 58.800 110.300 147.600 238.000 7.600 89.600 75.300 201.200 236.900 187.300 144.600 138.500 140.600 140.600 149.700 158.100 150.900 162.400 186.900 103.800 329.500 299.400 321.600 338.600 350.300 289.800 286.300 -999.000 -999.000 -999.000 -999.000 -999.000 -999.000 -999.000 -999.000 -999.000 -999.000 -999.000 -999.000 -999.000 -999.000 -999.000 -999.000 -999.000 -999.000 -999.000 -999.000 -999.000 -999.000 -999.000 -999.000 -999.000 -999.000 -999.000 -999.000 -999.000
-999.000 -999.000 -999.000 -999.000 -999.000 -999.000 -999.000 -999.000 -999.000 -999.000 -999.000 -999.000 -999.000 -999.000 -999.000 -999.000 -999.000 -999.000 -999.000 -999.000 -999.000 164.800 208.600 256.900 339.600 278.800 274.000 179.500 138.600 135.900 140.100 159.400 165.000 154.800 161.900 168.000 166.100 160.900 147.500 139.400 141.900 135.000 135.000 0.000 0.000 270.000 270.000 315.000 315.000 319.400 7.800 339.500 327.700 163.600 158.300 151.100 130.000 129.100 2.400 328.200 318.900 319.800 304.200 290.800 258.300 296.700 277.500 314.600 315.500 342.000 80.500 112.100 113.400 158.500 48.800 320.700 306.700 289.400 306.700 281.500 289.900 333.500 50.600 304.600 291.900 335.200 320.100 39.500 6.300 285.500 6.300 25.100 239.700 249.600 348.500 275.700 249.800 299.700 152.000 82.300 88.200 206.300 241.100 190.800 115.100 111.500 303.400 259.800 232.000 179.400 204.700 253.300 240.300 254.500 4.500 20.300 9.500 4.600 59.300 342.100 290.700 348.400 19.900 42.500 74.500 301.800 261.500 265.700 151.100 147.300 349.400 332.300 294.200 307.600 310.500 310.900 299.400 60.200 100.300 101.200 22.500 275.300 308.500 75.800 54.300 96.700 122.600 85.000 88.500 86.900 90.000 99.300 87.900 318.700 313.100 322.800 330.900 334.300 330.600 37.600 81.300 75.300 283.600 297.900 346.700 42.100 60.900 40.700 266.900 249.800 205.000 172.300 202.200 234.200 269.000 275.600 168.700 154.000 171.300 190.600 208.300 112.500 96.300 338.400 37.600 54.900 72.000 76.100 272.100 275.100 289.900 329.300 327.400 318.000 19.400 110.100 94.700 112.700 277.900 291.300 320.200 329.800 349.200 323.400 270.700 205.500 157.800 106.100 82.400 86.200 51.700 67.500 296.000 276.200 256.700 92.200 84.900 264.000 217.600 133.600 116.500 116.300 103.500 128.700 223.200 243.000 95.700 114.400 256.100 205.500 151.700 154.200 137.600 115.000 111.900 109.600 123.300 119.200 93.200 124.600 129.100 189.700 191.400 180.300 164.700 139.300 143.600 130.300 0.700 319.200 335.700 350.400 334.500 318.800 344.700 56.500 57.000 340.400 336.400 2.500 5.500 3.800 356.900 334.500 325.800 339.800 342.000 344.600 37.900 314.900 259.200 250.500 259.600 260.600 269.100 224.300 116.700 146.800 134.800 115.700 137.200 239.600 244.400 262.400 252.500 275.000 312.300 47.000 57.700 78.900 267.700 246.600 239.500 311.100 326.500 319.700 305.400 94.000 166.000 254.500 161.900 100.600 103.900 260.700 235.500 86.000 100.800 104.600 222.300 187.500 165.900 156.300 139.800 141.300 151.700 156.600 165.100 299.000 345.000 337.700 319.300 306.600 284.000 357.200 20.400 317.300 -999.000 -999.000 -999.000 -999.000 -999.000 -999.000 -999.000 -999.000 -999.000 -999.000 -999.000 -999.000 -999.000 -999.000 -999.000 -999.000 -999.000 -999.000 -999.000 -999.000 -999.000 -999.000 -999.000 -999.000 -999.000 -999.000 -999.000 -999.000 -999.000 -999.000
-999.000 -999.000 -999.000 -999.000 -999.000 -999.000 -999.000 -999.000 -999.000 -999.000 -999.000 -999.000 -999.000 -999.000 -999.000 -999.000 -999.000 -999.000 -999.000 -999.000 -999.000 225.200 179.700 352.200 200.100 220.900 195.600 175.900 151.400 145.400 150.500 157.500 143.600 143.700 163.100 169.800 160.700 142.100 149.700 156.000 135.000 135.000 0.000 0.000 0.000 270.000 314.900 315.000 316.600 5.400 0.900 40.900 67.300 182.400 119.500 122.300 98.900 358.600 335.600 323.800 328.700 305.100 284.200 275.400 279.000 19.600 356.400 338.000 0.500 44.400 170.300 206.700 107.200 104.300 2.300 303.100 316.500 326.500 313.200 279.700 282.100 127.900 33.900 280.100 325.300 277.000 121.400 72.600 275.900 325.500 356.600 318.100 147.500 336.100 298.800 328.100 309.300 309.400 131.300 85.600 90.400 85.100 227.900 226.700 134.700 108.300 56.100 238.500 227.900 274.500 254.900 315.000 322.100 338.600 8.300 16.000 223.500 353.800 89.500 99.700 262.000 253.800 192.000 24.000 42.800 26.200 136.900 216.300 207.600 201.400 184.800 295.600 289.500 253.700 298.600 288.500 331.600 80.200 113.300 78.800 194.300 242.600 237.600 214.300 155.800 83.100 63.800 52.400 40.600 60.900 64.700 74.000 18.700 311.900 295.400 328.400 297.400 314.900 322.300 63.600 100.700 19.200 296.000 291.800 20.900 118.900 69.600 109.900 287.800 222.000 197.000 185.800 243.400 274.200 282.800 251.800 155.000 109.400 157.900 253.100 321.300 35.400 34.600 51.900 45.400 72.800 74.000 81.100 226.800 249.300 233.000 246.900 247.600 326.200 341.600 90.200 66.100 323.700 294.800 274.700 353.000 159.000 263.000 232.400 154.100 230.200 146.000 58.500 354.400 8.800 41.800 40.300 302.900 283.100 51.700 67.400 202.700 292.300 134.000 149.500 156.200 130.500 114.600 143.500 264.300 240.500 268.800 113.000 221.000 212.700 146.700 156.300 149.100 131.000 109.300 120.900 161.100 117.900 116.100 112.900 145.600 216.700 241.700 110.400 99.400 98.900 129.600 324.400 315.600 333.700 344.600 342.700 335.900 316.100 25.100 94.100 53.200 305.700 327.200 351.800 10.500 26.600 358.900 336.100 346.300 357.000 358.100 7.300 47.000 1.800 300.800 317.300 315.300 320.300 318.000 323.700 148.200 139.300 126.400 127.600 246.300 271.100 272.700 163.900 196.900 225.300 256.200 274.300 78.600 77.200 19.000 270.600 271.300 217.100 190.500 208.700 322.500 83.700 82.200 284.100 241.800 98.600 112.200 247.600 211.500 155.500 115.700 136.000 200.600 162.400 162.400 161.500 150.900 140.400 168.100 284.000 10.900 332.200 319.100 359.300 42.500 280.700 236.600 269.400 275.500 -999.000 -999.000 -999.000 -999.000 -999.000 -999.000 -999.000 -999.000 -999.000 -999.000 -999.000 -999.000 -999.000 -999.000 -999.000 -999.000 -999.000 -999.000 -999.000 -999.000 -999.000 -999.000 -999.000 -999.000 -999.000 -999.000 -999.000 -999.000 -999.000 -999.000 -999.000
-999.000 -999.000 -999.000 -999.000 -999.000 -999.000 -999.000 -999.000 -999.000 -999.000 -999.000 -999.000 -999.000 -999.000 -999.000 -999.000 -999.000 -999.000 -999.000 -999.000 316.000 341.700 323.700 198.100 110.300 206.700 162.300 149.200 160.500 144.700 135.500 136.200 88.300 106.700 96.300 109.300 103.400 128.000 142.000 135.000 135.000 0.000 0.000 0.000 0.000 315.000 315.000 317.500 347.000 345.800 65.800 55.100 73.000 65.000 351.600 37.900 43.600 333.300 319.700 328.200 299.800 312.600 298.200 316.100 341.900 332.700 324.700 334.100 38.700 41.600 97.300 75.800 23.100 329.500 95.600 350.900 267.000 331.500 65.900 312.800 215.400 228.800 286.100 306.000 359.500 28.900 137.400 27.900 240.800 309.400 44.600 52.000 297.000 319.800 211.400 218.900 163.300 183.300 232.300 85.700 85.500 73.100 267.800 270.600 206.600 88.600 101.600 245.900 231.400 269.200 283.000 274.200 287.800 232.400 196.100 183.600 178.500 146.500 97.600 195.400 260.400 221.100 185.200 14.200 29.500 25.500 318.800 196.300 142.000 161.200 221.100 217.300 184.100 216.800 274.000 257.700 70.100 100.100 99.000 42.200 318.400 249.500 211.500 194.800 159.100 36.100 339.800 358.600 46.000 43.900 49.000 42.500 347.300 305.500 315.600 333.100 272.400 246.200 317.200 96.600 79.400 286.600 284.400 290.700 297.100 86.700 87.000 104.600 308.300 247.000 162.200 133.900 235.800 249.500 254.900 213.700 110.000 102.600 289.900 313.400 49.900 60.900 138.900 161.400 154.400 150.300 111.400 81.300 78.800 244.600 234.000 218.600 221.100 231.000 318.000 356.900 18.300 351.600 331.600 356.000 145.200 202.300 212.000 185.500 241.100 204.000 103.200 68.700 307.300 341.600 46.000 10.500 323.000 340.800 24.300 76.200 126.000 209.900 183.000 195.600 152.700 117.700 111.200 128.300 198.800 239.800 196.100 123.400 191.700 252.300 135.000 128.200 164.500 147.800 127.700 149.700 154.000 148.800 192.400 198.500 102.800 27.200 27.600 8.500 29.700 52.800 315.400 316.000 333.200 326.700 331.100 355.300 339.200 333.400 53.500 83.700 39.300 281.400 302.300 337.500 2.200 25.700 15.800 333.200 331.600 4.500 20.100 49.500 83.600 323.300 281.700 312.600 319.700 326.700 309.600 77.700 117.700 122.600 110.800 212.200 52.700 342.200 297.200 302.700 322.800 240.400 223.200 243.000 92.700 60.400 349.100 348.700 352.000 283.400 277.900 115.500 249.300 74.400 109.700 285.400 216.100 121.500 133.700 198.100 197.200 174.600 133.900 147.700 156.400 153.000 166.300 176.400 174.200 112.000 29.700 339.200 327.100 317.000 332.700 333.700 31.500 180.400 247.700 228.900 235.500 -999.000 -999.000 -999.000 -999.000 -999.000 -999.000 -999.000 -999.000 -999.000 -999.000 -999.000 -999.000 -999.000 -999.000 -999.000 -999.000 -999.000 -999.000 -999.000 -999.000 -999.000 -999.000 -999.000 -999.000 -999.000 -999.000 -999.000 -999.000 -999.000 -999.000 -999.000
-999.000 -999.000 -999.000 -999.000 -999.000 -999.000 -999.000 -999.000 -999.000 -999.000 -999.000 -999.000 -999.000 -999.000 -999.000 -999.000 -999.000 -999.000 -999.000 -999.000 324.900 329.100 355.600 357.400 356.900 17.200 78.300 117.300 130.600 126.600 137.900 205.300 110.100 109.500 101.700 90.800 167.100 136.900 135.000 135.000 315.000 315.000 35.300 45.000 315.900 315.000 319.500 298.200 334.900 78.300 60.900 13.300 47.700 26.100 24.500 35.700 41.700 338.500 301.800 318.600 325.200 5.600 316.200 301.700 284.100 310.400 312.000 21.200 110.700 66.000 40.700 324.800 334.300 33.400 93.000 318.300 253.700 86.300 111.600 300.200 286.200 13.300 3.600 307.500 358.800 0.000 9.000 354.900 318.400 343.200 27.300 50.400 48.900 199.800 240.200 221.200 194.200 172.900 125.600 111.700 93.800 81.000 58.000 282.800 260.000 80.000 96.600 280.200 294.600 241.100 237.400 224.300 213.400 188.500 169.200 174.400 196.200 199.600 198.600 64.200 277.200 303.000 299.600 318.900 9.700 16.500 8.200 19.100 13.300 293.900 314.300 159.400 183.800 207.400 230.500 220.500 146.200 136.600 118.300 341.400 359.300 22.900 301.400 235.200 209.300 210.000 323.200 25.300 37.400 47.600 78.000 50.100 313.400 289.200 357.200 96.600 276.400 243.000 94.100 107.300 64.900 261.300 270.500 288.500 341.200 46.700 52.900 24.100 42.400 19.900 347.500 288.500 229.100 232.200 218.200 198.100 144.300 278.800 283.700 326.400 77.400 167.400 177.100 109.900 97.100 20.500 37.200 42.700 55.300 310.900 248.100 245.300 260.200 252.900 317.400 36.100 52.700 359.100 278.500 182.300 156.800 230.200 251.200 308.100 121.300 188.300 170.200 217.300 247.500 325.100 80.400 22.200 297.800 26.900 111.700 152.600 200.000 144.600 139.300 187.700 173.300 100.900 71.000 107.900 181.300 229.800 187.600 144.700 184.000 204.700 131.000 132.200 145.900 171.400 144.700 158.300 185.400 163.500 126.200 270.900 3.800 28.400 323.300 337.900 42.500 40.300 358.500 290.700 293.600 285.500 301.800 297.500 285.300 351.200 70.000 71.400 20.900 275.200 269.400 290.600 335.800 41.800 12.200 306.000 309.700 67.700 113.200 119.100 82.500 275.300 303.900 309.300 313.300 351.400 50.800 88.800 109.800 93.500 319.800 319.100 333.300 34.100 284.000 285.900 307.500 337.700 258.900 242.600 177.700 72.000 295.000 341.600 30.300 263.400 323.900 136.300 168.800 157.100 135.000 171.500 183.200 147.600 158.200 194.100 177.400 170.500 172.300 165.000 159.300 157.400 162.500 79.600 9.600 38.400 334.400 309.500 337.800 323.400 315.700 47.300 51.900 338.200 317.100 290.300 254.000 258.600 -999.000 -999.000 -999.000 -999.000 -999.000 -999.000 -999.000 -999.000 -999.000 -999.000 -999.000 -999.000 -999.000 -999.000 -999.000 -999.000 -999.000 -999.000 -999.000 -999.000 -999.000 -999.000 -999.000 -999.000 -999.000 -999.000 -999.000 -999.000 -999.000 -999.000
-999.000 -999.000 -999.000 -999.000 -999.000 -999.000 -999.000 -999.000 -999.000 -999.000 -999.000 -999.000 -999.000 -999.000 -999.000 -999.000 -999.000 -999.000 -999.000 -999.000 323.000 328.700 316.000 31.000 88.000 112.300 127.100 134.300 126.500 133.000 167.700 179.500 159.700 146.900 156.700 149.300 135.000 135.000 315.000 315.000 315.700 34.500 32.300 328.100 317.400 321.500 318.700 329.800 62.500 89.700 24.600 33.500 20.700 26.700 37.400 50.700 99.900 296.800 312.400 311.700 345.000 0.300 346.200 290.200 273.100 208.100 237.700 201.700 83.100 140.200 333.500 350.000 24.900 31.400 66.800 238.800 276.600 320.500 59.500 341.700 336.700 336.700 292.700 276.500 43.200 108.500 359.300 275.500 344.200 312.200 352.900 54.900 33.400 215.800 324.100 317.500 346.600 4.000 33.500 51.600 79.000 85.300 63.000 285.600 241.800 70.000 119.900 322.600 302.200 291.100 276.400 282.400 238.900 199.700 133.800 205.400 241.700 187.800 271.300 307.000 311.700 313.100 349.800 329.900 324.900 35.100 38.800 359.400 348.600 357.100 352.900 2.800 357.200 307.600 239.500 211.400 157.400 154.100 189.400 334.000 323.700 358.000 357.900 348.200 338.400 320.300 321.600 12.400 63.400 90.800 90.300 86.800 266.900 278.300 40.500 57.000 275.500 298.500 151.700 75.100 99.300 295.500 275.300 272.800 347.400 42.100 50.500 34.100 358.600 352.700 357.400 12.500 357.800 296.700 201.300 198.900 165.800 241.500 272.200 273.200 67.900 83.000 27.600 16.900 7.600 358.600 6.300 40.800 62.400 78.100 286.600 273.200 279.500 289.100 261.100 196.900 159.200 182.000 163.000 153.400 182.400 289.300 311.400 345.300 176.500 82.900 148.400 225.200 238.200 245.500 120.500 180.700 263.600 177.300 92.200 70.700 58.300 33.900 81.700 219.500 190.500 126.900 120.000 92.700 160.200 207.600 184.100 173.700 187.600 195.100 151.400 138.000 148.600 161.000 161.900 187.500 208.500 18.100 306.400 323.700 43.000 62.400 329.900 299.100 20.000 55.700 127.200 271.100 243.300 214.900 229.600 236.100 255.400 47.100 78.500 79.100 98.900 264.800 250.000 260.600 261.600 74.000 9.600 260.300 35.600 129.600 125.500 119.900 32.600 295.200 309.100 326.400 316.000 125.300 134.900 134.200 115.500 86.500 277.300 315.000 8.800 50.700 290.700 270.200 302.200 29.800 351.600 263.900 272.100 15.000 216.700 56.300 145.700 242.400 220.400 77.000 171.100 119.700 110.700 167.200 187.300 166.700 168.700 178.900 181.300 184.000 178.800 137.300 61.800 343.400 9.600 356.900 325.100 6.500 16.800 315.900 296.700 330.600 333.300 7.300 40.100 12.900 20.600 339.500 297.700 269.700 -999.000 -999.000 -999.000 -999.000 -999.000 -999.000 -999.000 -999.000 -999.000 -999.000 -999.000 -999.000 -999.000 -999.000 -999.000 -999.000 -999.000 -999.000 -999.000 -999.000 -999.000 -999.000 -999.000 -999.000 -999.000 -999.000 -999.000 -999.000 -999.000 -999.000
-999.000 -999.000 -999.000 -999.000 -999.000 -999.000 -999.000 -999.000 -999.000 -999.000 -999.000 -999.000 -999.000 -999.000 -999.000 -999.000 -999.000 -999.000 -999.000 -999.000 -999.000 253.000 228.200 144.800 144.200 142.300 150.500 133.200 121.900 114.700 130.300 124.700 168.400 173.000 130.200 130.000 51.100 315.000 315.000 355.000 16.100 35.600 23.600 319.300 316.600 328.700 320.900 329.300 89.900 36.600 314.300 349.200 45.200 80.200 80.800 106.900 65.000 273.000 301.800 266.800 305.900 86.600 347.400 278.800 281.200 207.600 223.900 228.300 76.800 82.500 164.000 250.500 208.000 125.800 95.000 262.800 285.300 38.100 11.100 274.700 260.900 208.600 206.300 260.600 278.700 179.500 330.500 286.400 347.400 333.000 6.400 56.600 41.400 43.600 334.900 298.900 305.400 9.600 52.100 25.400 35.200 77.500 67.000 254.300 290.000 103.600 85.000 259.300 236.900 295.900 251.600 327.100 264.900 189.500 185.600 193.300 195.700 244.500 262.600 299.700 330.600 251.000 222.800 201.700 184.600 191.500 211.700 283.700 322.500 336.400 354.900 3.500 12.100 20.500 17.800 328.400 273.600 287.100 332.800 314.900 326.900 356.400 5.200 8.300 356.800 345.300 310.600 43.500 115.900 110.200 100.500 141.500 272.500 277.200 19.800 16.100 284.300 325.600 70.600 46.900 3.500 322.500 308.100 301.700 251.200 14.300 57.900 15.900 21.400 25.100 340.300 349.500 29.200 20.100 307.600 318.900 325.000 301.800 292.600 11.500 56.900 7.600 355.900 19.600 36.700 66.900 8.300 59.200 58.100 71.200 339.800 264.400 254.500 219.500 184.500 173.900 156.200 153.100 179.600 190.700 252.500 283.600 258.600 350.200 145.700 120.500 86.000 227.700 236.200 236.300 163.600 148.000 149.900 140.500 76.000 78.400 52.300 99.600 95.100 170.400 205.500 153.900 147.400 130.200 148.600 172.900 168.600 178.300 189.000 182.100 175.300 144.200 153.700 227.900 307.200 341.200 351.700 1.800 348.300 324.700 16.300 48.400 302.000 297.100 39.100 51.600 44.300 324.000 238.500 226.300 215.700 240.500 261.700 245.300 62.900 63.500 67.000 330.500 255.500 254.400 264.700 40.100 56.200 278.600 89.000 114.900 100.600 79.400 328.100 295.000 334.800 274.600 37.800 152.400 132.500 129.100 118.000 155.400 276.400 267.100 314.800 61.200 72.700 284.800 260.000 70.300 65.900 297.500 297.600 21.800 359.900 29.300 103.200 147.400 178.900 146.800 130.700 131.000 148.200 155.300 156.500 325.400 342.300 358.700 359.800 2.600 25.900 352.400 345.300 28.500 357.300 320.500 329.500 8.700 31.000 301.200 278.800 268.600 277.800 58.200 62.200 336.600 29.600 68.700 285.600 254.900 -999.000 -999.000 -999.000 -999.000 -999.000 -999.000 -999.000 -999.000 -999.000 -999.000 -999.000 -999.000 -999.000 -999.000 -999.000 -999.000 -999.000 -999.000 -999.000 -999.000 -999.000 -999.000 -999.000 -999.000 -999.000 -999.000 -999.000 -999.000 -999.000 -999.000
-999.000 -999.000 -999.000 -999.000 -999.000 -999.000 -999.000 -999.000 -999.000 -999.000 -999.000 -999.000 -999.000 -999.000 -999.000 -999.000 -999.000 -999.000 -999.000 -999.000 -999.000 286.100 226.500 106.500 109.400 132.600 134.600 126.700 111.300 109.000 47.200 267.500 68.700 73.400 75.300 48.500 319.600 317.200 339.800 357.700 18.900 9.700 340.400 350.700 294.300 284.300 350.700 76.400 62.000 5.900 310.300 355.700 75.200 102.200 105.700 118.600 334.300 294.900 283.100 300.800 325.000 33.000 352.300 342.500 341.600 357.500 4.300 5.300 102.100 121.900 196.300 192.800 164.600 159.000 36.600 296.300 309.600 3.700 31.300 309.500 305.300 313.400 298.000 298.700 290.400 358.800 309.700 337.500 359.100 332.700 4.700 51.500 46.800 53.900 277.400 241.000 193.000 171.000 104.300 43.100 61.400 72.900 69.900 279.600 357.200 93.200 51.800 205.400 227.500 214.000 202.400 208.600 215.500 206.200 228.400 294.900 308.200 43.200 92.700 246.400 234.800 249.400 204.800 231.100 220.300 125.400 141.100 298.300 306.800 356.500 358.300 8.300 29.600 42.200 68.700 351.100 307.200 314.500 337.500 19.700 356.000 280.500 234.900 125.200 176.200 227.000 213.000 146.400 125.500 121.400 122.900 264.000 283.800 275.400 37.200 199.800 298.500 274.500 32.900 41.900 355.900 333.100 317.300 233.900 199.100 188.600 124.000 114.500 329.300 342.000 333.000 343.500 38.200 25.700 11.400 353.000 336.300 323.700 323.100 326.200 85.100 54.900 345.100 344.900 348.600 116.500 103.200 104.100 97.500 85.500 255.000 254.000 233.700 204.900 179.500 167.900 162.300 195.800 243.700 318.100 291.400 265.700 224.100 158.200 112.400 145.000 54.800 249.600 278.600 219.300 69.200 123.600 180.300 195.100 168.400 158.700 158.100 152.100 130.800 155.400 197.300 167.000 136.600 128.700 139.300 212.400 277.100 352.000 142.300 151.200 147.200 122.900 130.600 326.200 330.000 343.200 348.900 5.800 332.700 311.700 30.700 64.400 31.400 281.200 308.600 71.200 67.000 197.400 238.600 208.000 222.700 241.200 251.700 266.800 61.600 50.100 44.200 18.600 287.400 259.400 270.700 338.100 346.900 26.200 82.000 11.300 75.300 30.500 295.900 285.600 287.100 188.400 116.700 115.700 123.300 135.000 114.500 249.500 273.700 244.400 252.000 86.100 49.900 197.700 273.800 250.700 113.100 333.100 289.100 200.100 74.000 128.100 107.100 183.300 196.800 178.400 161.700 135.600 147.900 321.500 343.200 2.900 353.400 354.600 3.500 346.000 25.200 2.500 332.800 1.600 340.900 340.600 322.700 19.300 62.300 267.500 262.700 252.600 226.500 328.600 54.600 60.400 43.700 76.300 230.300 -999.000 -999.000 -999.000 -999.000 -999.000 -999.000 -999.000 -999.000 -999.000 -999.000 -999.000 -999.000 -999.000 -999.000 -999.000 -999.000 -999.000 -999.000 -999.000 -999.000 -999.000 -999.000 -999.000 -999.000 -999.000 -999.000 -999.000 -999.000 -999.000 -999.000 -999.000
-999.000 -999.000 -999.000 -999.000 -999.000 -999.000 -999.000 -999.000 -999.000 -999.000 -999.000 -999.000 -999.000 -999.000 -999.000 -999.000 -999.000 -999.000 -999.000 -999.000 -999.000 313.800 77.700 112.000 109.800 127.000 147.600 120.300 133.100 160.800 129.500 131.300 54.900 48.000 55.000 336.100 318.400 300.800 306.500 13.500 24.300 20.700 356.300 305.200 306.200 305.200 324.600 89.300 43.100 278.700 303.500 93.300 107.900 112.000 99.300 92.100 304.800 308.200 318.800 330.700 0.700 13.300 326.800 330.700 7.100 11.000 352.300 348.000 73.700 71.200 66.200 154.200 338.900 95.800 73.900 284.000 278.200 7.700 318.300 327.700 332.400 338.600 356.300 13.400 339.800 318.200 280.100 326.900 321.500 19.300 54.700 42.500 70.100 29.400 328.000 292.900 277.100 328.000 59.800 78.300 103.500 91.900 108.700 325.600 10.800 49.500 64.400 43.400 302.100 231.300 245.100 199.400 280.400 320.000 350.100 349.200 356.800 341.800 293.700 279.100 296.800 354.500 344.000 344.900 11.300 348.700 316.300 317.300 261.100 267.900 211.300 162.500 143.700 129.400 96.000 351.200 299.600 332.500 63.300 193.900 191.200 179.500 181.400 175.300 176.300 186.500 195.100 165.400 98.500 89.200 73.900 314.400 296.700 299.400 354.300 139.100 318.600 232.400 32.900 82.700 351.100 291.800 240.000 142.200 183.800 218.100 243.400 271.000 356.300 352.700 339.800 315.300 26.800 37.100 3.400 341.600 342.200 293.600 217.000 237.300 169.600 142.700 210.600 155.200 102.100 96.600 150.100 140.900 126.900 109.600 192.300 256.900 221.200 185.200 188.000 212.000 245.000 345.100 329.500 337.900 334.900 274.800 19.000 145.400 116.600 115.900 173.600 255.400 256.300 200.700 173.400 137.800 161.300 154.200 171.000 166.300 156.200 152.300 148.300 140.100 163.600 170.800 155.700 195.400 292.100 15.100 2.700 353.600 1.000 17.800 31.600 29.800 328.000 313.400 319.800 335.400 351.200 15.000 6.500 332.700 12.000 44.000 71.800 287.000 273.100 92.600 77.100 100.300 207.700 230.200 253.600 243.600 236.600 260.200 220.600 54.700 63.300 73.700 306.300 269.500 275.100 290.500 90.900 49.100 24.100 68.500 17.100 348.600 269.400 316.000 186.400 102.400 136.600 150.700 124.700 107.900 286.000 327.700 0.700 282.500 248.000 259.100 40.600 66.800 343.500 273.400 280.100 275.500 239.500 146.600 162.500 184.700 169.000 344.100 357.200 21.300 59.900 86.500 51.900 307.200 318.800 356.300 345.000 357.600 357.500 351.200 47.200 336.100 329.900 34.600 322.700 325.400 318.900 32.300 90.700 258.700 257.100 225.900 179.600 191.600 227.500 296.400 29.500 26.300 -999.000 -999.000 -999.000 -999.000 -999.000 -999.000 -999.000 -999.000 -999.000 -999.000 -999.000 -999.000 -999.000 -999.000 -999.000 -999.000 -999.000 -999.000 -999.000 -999.000 -999.000 -999.000 -999.000 -999.000 -999.000 -999.000 -999.000 -999.000 -999.000 -999.000 -999.000 -999.000
-999.000 -999.000 -999.000 -999.000 -999.000 -999.000 -999.000 -999.000 -999.000 -999.000 -999.000 -999.000 -999.000 -999.000 -999.000 -999.000 -999.000 -999.000 -999.000 -999.000 300.600 199.000 136.900 116.200 123.400 130.900 125.600 116.100 134.100 114.000 189.100 220.100 146.400 134.600 134.200 317.000 289.500 277.700 307.700 327.400 75.300 8.200 282.300 334.300 292.700 329.000 169.100 62.700 62.200 283.800 161.700 116.800 120.200 115.200 82.700 322.600 302.100 313.400 311.200 331.000 13.700 18.400 322.200 306.400 316.300 347.900 99.500 86.500 67.300 54.200 94.600 357.200 271.300 334.500 316.100 304.900 208.400 37.700 275.500 302.700 316.100 342.000 356.700 339.800 322.600 229.600 270.800 242.000 324.700 267.000 336.200 58.600 21.700 19.800 359.600 347.900 352.700 347.300 11.200 67.200 91.900 103.800 126.800 283.200 27.400 64.200 77.900 36.200 2.500 259.800 285.800 302.600 295.000 332.000 321.100 322.200 336.700 37.900 17.700 319.100 325.200 298.400 339.900 315.900 346.900 0.900 347.800 299.800 247.700 197.500 195.300 150.300 125.000 108.700 40.700 300.500 296.000 140.100 160.500 158.100 170.200 184.200 181.800 170.400 179.800 189.700 201.800 190.800 110.600 80.500 354.000 290.300 283.600 277.400 313.400 273.100 279.900 345.000 345.700 325.900 7.500 130.400 122.500 152.000 247.500 320.400 324.800 341.800 45.500 101.600 195.600 229.600 269.800 127.000 16.200 199.700 175.400 183.200 212.000 212.200 97.000 131.600 171.100 205.800 172.200 105.600 116.000 114.900 110.500 95.000 312.500 318.100 11.400 3.500 286.400 343.100 347.300 330.000 330.600 7.100 325.500 277.700 55.400 71.600 158.500 33.600 133.900 250.300 225.700 181.300 155.000 139.900 138.300 162.300 165.300 173.300 168.100 148.600 146.300 181.600 216.400 211.900 63.800 33.900 350.000 331.300 338.600 356.000 15.900 28.800 38.000 57.200 330.800 268.000 290.700 287.000 308.800 347.200 11.200 354.700 41.300 80.300 74.300 287.000 279.000 83.800 83.100 86.500 53.500 243.400 255.600 250.300 254.900 261.400 233.400 100.900 96.200 90.000 286.600 276.400 283.400 278.700 16.400 55.300 57.500 84.800 13.700 316.100 328.700 347.300 31.500 156.500 111.200 94.200 94.900 2.800 282.100 313.800 40.700 42.800 273.900 280.100 126.000 44.500 120.700 287.600 278.300 261.800 327.500 51.800 133.800 20.600 24.700 355.300 0.900 26.700 43.200 55.700 314.600 278.700 287.900 357.400 338.600 354.400 2.800 14.800 53.100 304.200 338.300 75.900 332.500 286.700 255.200 74.200 102.300 148.800 253.600 223.400 188.800 191.100 191.500 176.100 207.300 -999.000 -999.000 -999.000 -999.000 -999.000 -999.000 -999.000 -999.000 -999.000 -999.000 -999.000 -999.000 -999.000 -999.000 -999.000 -999.000 -999.000 -999.000 -999.000 -999.000 -999.000 -999.000 -999.000 -999.000 -999.000 -999.000 -999.000 -999.000 -999.000 -999.000 -999.000 -999.000 -999.000
-999.000 -999.000 -999.000 -999.000 -999.000 -999.000 -999.000 -999.000 -999.000 -999.000 -999.000 -999.000 -999.000 -999.000 -999.000 -999.000 -999.000 -999.000 -999.000 186.200 168.700 155.700 139.900 127.000 125.300 130.300 118.400 116.800 112.600 113.300 208.700 209.100 130.900 316.500 315.300 340.700 281.800 278.200 316.500 128.600 106.900 270.900 266.000 305.300 294.000 299.600 5.600 96.700 117.900 173.000 136.300 138.600 111.400 84.100 342.100 309.700 306.300 295.400 285.700 15.600 70.700 341.000 300.500 276.700 161.900 136.300 127.700 170.600 128.000 102.800 33.500 332.200 332.600 330.000 358.600 331.700 326.100 16.400 255.000 271.700 266.600 302.100 328.200 36.200 49.100 237.500 254.100 212.000 227.500 219.600 14.600 358.600 359.200 19.600 4.700 342.000 344.100 337.900 33.300 61.100 77.500 75.300 296.300 326.300 98.100 51.200 79.400 55.100 16.000 312.400 233.200 278.900 266.800 278.300 286.500 301.700 348.300 45.200 15.000 304.800 307.300 335.100 328.300 301.800 353.800 344.600 13.400 79.400 320.200 251.100 234.500 61.600 64.100 335.800 352.900 189.100 155.700 152.700 154.200 169.200 172.100 168.900 181.300 183.900 181.000 194.800 200.100 206.500 169.500 117.500 149.400 241.400 238.500 220.300 198.700 188.000 205.100 260.200 204.600 320.100 99.200 131.100 144.800 262.600 298.800 7.000 95.800 188.900 186.500 201.700 204.700 239.400 249.100 130.900 145.200 173.500 162.700 151.400 182.600 224.300 232.600 122.000 168.200 153.500 136.100 142.900 92.800 115.300 74.300 314.400 319.600 334.600 31.200 21.100 329.400 315.500 315.000 310.800 304.000 43.900 98.800 262.300 64.100 11.000 52.700 44.200 71.300 294.500 230.000 155.800 140.200 163.500 152.200 150.300 165.300 177.400 167.300 185.000 229.900 27.100 14.900 5.600 357.900 325.900 324.600 347.700 334.500 349.300 23.100 50.200 59.900 74.900 264.700 238.900 228.700 222.200 252.600 302.900 7.600 32.900 83.600 112.800 65.300 273.800 314.600 72.800 84.400 87.400 88.800 249.100 247.000 263.500 275.000 273.200 284.600 97.600 109.400 112.500 248.200 279.900 264.900 289.200 66.500 74.100 98.800 3.800 300.600 343.600 58.500 139.200 238.200 129.600 53.100 95.100 59.000 275.700 291.100 307.700 21.600 69.000 309.300 260.300 220.800 42.400 105.600 316.000 263.500 259.800 59.100 42.900 44.800 349.500 305.300 294.200 71.600 128.200 113.400 107.000 231.200 275.200 281.400 0.200 316.500 356.100 99.900 37.100 78.500 294.800 358.000 82.900 275.700 237.600 174.900 122.700 107.500 182.900 242.500 204.000 223.100 248.400 276.800 240.100 233.600 251.900 -999.000 -999.000 -999.000 -999.000 -999.000 -999.000 -999.000 -999.000 -999.000 -999.000 -999.000 -999.000 -999.000 -999.000 -999.000 -999.000 -999.000 -999.000 -999.000 -999.000 -999.000 -999.000 -999.000 -999.000 -999.000 -999.000 -999.000 -999.000 -999.000 -999.000 -999.000 -999.000
-999.000 -999.000 -999.000 -999.000 -999.000 -999.000 -999.000 -999.000 -999.000 -999.000 -999.000 -999.000 -999.000 -999.000 -999.000 -999.000 -999.000 178.900 173.200 172.800 156.800 155.200 135.300 118.500 115.000 124.400 107.700 129.800 106.600 134.600 115.200 316.200 315.200 331.900 8.300 338.600 290.300 318.000 241.900 168.100 83.900 233.900 305.100 292.300 328.600 95.400 29.600 83.000 102.000 330.200 76.400 72.400 90.900 47.000 323.500 300.400 308.500 304.300 312.300 7.800 18.000 32.000 321.300 289.600 139.400 157.700 67.800 69.600 0.800 1.000 73.600 325.100 295.700 344.000 357.100 359.500 33.900 334.800 292.100 257.000 304.100 270.200 320.500 58.700 58.400 110.300 259.200 278.300 288.100 305.800 326.300 346.600 13.600 12.500 351.900 5.400 2.700 341.600 48.700 65.400 73.300 69.300 350.100 315.900 73.600 70.700 84.400 80.300 35.300 39.900 222.200 226.500 247.100 226.200 228.700 270.600 288.600 11.300 2.300 339.500 304.400 320.600 330.100 299.600 343.900 216.400 49.500 135.500 101.100 219.400 278.200 146.300 353.800 18.100 67.300 155.400 144.200 151.800 149.600 152.200 159.100 186.700 186.100 179.600 198.900 185.500 203.300 206.900 179.300 161.500 187.600 219.900 208.000 204.200 213.000 218.000 236.600 231.300 238.700 139.600 133.400 160.800 221.200 207.600 277.300 182.600 194.500 185.900 163.800 170.600 283.700 283.500 275.600 115.500 137.600 163.600 137.200 150.100 211.200 209.800 179.800 133.900 99.800 157.800 88.600 145.600 116.900 94.200 347.800 305.900 310.600 342.800 43.300 65.300 309.700 291.600 319.500 334.300 326.700 41.200 306.500 311.500 84.800 73.900 74.500 51.800 89.700 125.400 238.100 169.400 146.900 141.300 151.700 148.800 168.500 280.000 336.200 350.400 354.400 350.000 355.100 348.900 346.000 340.800 329.500 341.100 351.900 33.200 87.200 100.700 105.500 69.300 259.500 288.500 277.600 271.600 273.100 277.100 72.000 91.700 105.600 84.900 301.300 295.100 3.200 81.400 86.400 87.100 87.600 252.600 247.100 271.000 246.700 262.800 240.000 118.600 93.400 109.100 247.600 258.500 246.100 255.200 185.900 106.100 109.400 42.500 325.400 294.800 148.100 143.000 156.900 169.700 156.500 128.400 98.300 275.000 286.300 312.900 15.800 69.100 2.200 262.100 289.700 61.200 40.700 90.200 270.800 244.000 157.500 119.500 29.900 255.500 320.300 270.300 123.000 92.300 106.900 83.300 130.400 258.500 249.500 239.800 202.000 153.500 180.200 127.200 113.000 294.800 299.600 74.200 81.700 239.900 173.200 121.200 94.200 52.500 307.700 298.900 141.700 299.300 281.000 316.900 321.000 295.700 -999.000 -999.000 -999.000 -999.000 -999.000 -999.000 -999.000 -999.000 -999.000 -999.000 -999.000 -999.000 -999.000 -999.000 -999.000 -999.000 -999.000 -999.000 -999.000 -999.000 -999.000 -999.000 -999.000 -999.000 -999.000 -999.000 -999.000 -999.000 -999.000 -999.000 -999.000 -999.000
-999.000 -999.000 -999.000 -999.000 -999.000 -999.000 -999.000 -999.000 -999.000 -999.000 -999.000 -999.000 -999.000 -999.000 -999.000 -999.000 193.700 187.200 166.000 160.300 151.400 155.700 156.900 137.000 101.500 98.700 107.700 103.900 119.800 121.700 320.600 315.700 331.800 340.600 359.700 343.000 312.300 321.300 34.700 76.900 24.900 274.100 300.600 295.000 351.500 6.700 46.100 45.800 44.900 41.500 34.000 96.700 79.600 94.100 297.400 315.600 318.100 315.200 347.500 37.300 58.700 125.900 189.400 169.300 164.000 141.100 121.500 245.000 322.000 49.800 59.700 317.800 286.900 311.500 355.600 344.700 350.100 9.700 345.200 314.700 287.200 249.500 221.900 143.400 125.700 18.200 301.400 319.000 324.100 325.500 345.300 3.100 343.500 351.100 357.900 358.900 359.600 7.500 68.600 71.200 73.400 72.400 35.000 336.500 34.700 54.800 58.300 52.800 49.300 51.700 88.000 224.000 228.300 223.200 238.400 228.900 203.600 142.200 197.400 275.600 293.100 325.300 115.500 323.100 240.500 358.400 100.200 102.200 123.400 230.400 211.500 162.900 284.600 139.800 127.300 143.900 144.300 136.600 135.000 135.000 315.000 315.000 331.000 7.300 26.900 345.900 342.900 226.500 265.300 167.400 154.600 181.400 197.000 213.900 217.700 226.400 242.800 263.300 233.800 133.300 142.800 145.200 158.500 237.800 187.600 161.500 181.400 156.400 130.500 249.200 241.000 220.600 217.800 151.800 77.300 274.900 7.900 47.600 129.600 168.600 187.900 181.900 181.600 190.700 143.800 91.500 120.100 24.400 270.200 313.200 282.000 309.200 61.100 75.200 325.600 288.200 269.600 261.300 242.100 108.400 127.300 62.400 155.200 183.000 151.100 149.700 115.200 156.500 189.400 151.800 157.400 144.900 161.500 317.400 350.600 9.100 351.500 330.300 335.500 348.900 14.500 353.300 351.200 350.200 329.400 287.500 42.900 140.400 133.800 136.300 130.800 82.400 291.500 320.900 321.100 332.800 302.200 278.600 91.100 112.600 116.200 43.200 279.400 297.000 55.400 100.900 88.900 82.500 81.000 335.300 256.700 250.200 243.600 244.700 223.500 112.500 84.000 103.400 268.300 269.800 261.400 281.000 177.600 94.600 113.000 168.100 207.700 167.000 144.200 136.800 166.700 201.500 173.500 112.000 162.400 273.500 282.200 277.500 1.900 76.100 87.900 253.700 253.500 251.700 13.900 63.200 294.400 271.400 207.400 122.000 67.700 294.300 312.800 58.400 59.500 48.500 55.500 58.500 100.200 244.200 231.400 209.200 181.900 179.800 203.400 193.500 10.600 272.200 357.200 96.500 112.400 284.700 335.400 63.600 20.400 1.300 1.600 336.000 328.200 238.900 204.900 210.900 237.500 -999.000 -999.000 -999.000 -999.000 -999.000 -999.000 -999.000 -999.000 -999.000 -999.000 -999.000 -999.000 -999.000 -999.000 -999.000 -999.000 -999.000 -999.000 -999.000 -999.000 -999.000 -999.000 -999.000 -999.000 -999.000 -999.000 -999.000 -999.000 -999.000 -999.000 -999.000 -999.000 -999.000
-999.000 -999.000 -999.000 -999.000 -999.000 -999.000 -999.000 -999.000 -999.000 -999.000 -999.000 -999.000 -999.000 -999.000 -999.000 84.800 172.400 173.600 181.100 194.900 141.700 93.300 98.100 110.100 112.600 93.100 113.500 82.700 124.500 17.500 317.000 304.300 331.000 338.700 6.100 329.100 316.800 335.700 60.100 76.800 298.700 279.800 287.900 301.800 340.300 29.500 58.900 3.300 64.400 78.400 88.000 127.800 90.600 259.600 299.500 311.400 323.000 321.700 9.900 84.400 124.300 151.200 156.600 202.500 177.200 152.300 165.000 210.900 207.000 151.000 88.300 276.700 268.300 310.800 327.100 341.100 343.800 345.800 347.000 350.100 6.300 319.700 276.100 51.000 74.400 2.900 304.800 304.700 317.000 303.900 243.700 203.000 168.400 182.000 280.700 351.200 79.700 65.600 47.800 62.400 56.500 51.600 47.400 38.600 54.000 83.400 40.400 49.500 33.700 56.900 60.600 195.800 225.000 223.500 228.700 227.700 217.200 197.600 216.100 269.500 287.100 111.500 356.300 273.300 227.400 86.100 104.900 106.800 144.000 227.200 237.500 249.900 173.800 132.200 138.600 137.000 135.000 135.000 315.000 315.000 333.600 346.200 347.300 357.000 354.800 358.000 9.400 9.200 358.800 3.700 34.600 42.100 226.800 197.500 206.100 221.900 235.000 225.300 182.300 149.100 132.500 165.900 215.000 193.400 177.400 304.200 340.600 346.900 347.200 324.100 273.800 208.800 220.200 144.500 42.600 336.000 1.000 23.700 9.900 7.600 81.500 149.000 184.800 183.500 154.100 110.600 58.100 294.700 316.500 299.100 260.000 277.600 97.500 55.500 281.200 272.400 186.900 215.100 233.500 120.900 143.700 167.100 158.400 158.600 156.000 152.200 130.300 149.800 191.700 174.500 142.600 107.800 352.000 318.700 336.500 5.900 341.200 321.900 328.900 11.000 38.200 342.100 339.200 350.800 338.600 96.600 125.000 132.800 128.500 138.600 99.100 221.500 286.200 292.000 297.200 283.000 277.000 257.800 122.500 114.100 99.100 235.300 275.300 294.700 101.600 99.400 96.500 88.000 90.900 32.900 252.500 243.000 246.200 226.700 249.700 135.200 96.900 90.800 246.700 277.000 279.200 270.600 42.600 151.200 159.900 170.700 170.400 172.500 156.200 142.900 143.300 172.700 196.000 328.700 238.500 293.300 268.500 249.600 297.100 84.900 49.900 287.800 247.600 250.400 239.100 63.100 355.900 302.000 327.400 37.300 342.300 312.700 14.100 62.500 59.000 33.800 38.000 78.300 83.700 209.200 223.300 213.300 199.400 189.400 198.100 247.600 319.800 244.200 290.200 62.300 86.800 19.200 336.900 5.400 32.400 44.900 324.200 322.800 44.400 338.700 266.800 230.300 223.600 -999.000 -999.000 -999.000 -999.000 -999.000 -999.000 -999.000 -999.000 -999.000 -999.000 -999.000 -999.000 -999.000 -999.000 -999.000 -999.000 -999.000 -999.000 -999.000 -999.000 -999.000 -999.000 -999.000 -999.000 -999.000 -999.000 -999.000 -999.000 -999.000 -999.000 -999.000 -999.000 -999.000
-999.000 -999.000 -999.000 -999.000 -999.000 -999.000 -999.000 -999.000 -999.000 -999.000 -999.000 -999.000 -999.000 -999.000 135.400 135.700 209.200 245.600 328.800 33.400 43.600 26.800 17.700 65.800 105.800 85.000 97.600 76.300 67.100 339.100 290.500 274.900 294.000 287.000 2.500 304.600 296.800 340.700 88.000 71.100 265.900 295.400 270.300 297.600 313.300 127.100 22.100 114.500 80.800 102.100 147.200 76.900 162.900 313.000 306.400 304.800 318.000 313.400 162.000 122.400 125.500 115.300 312.000 344.600 5.800 10.600 345.800 330.400 1.200 32.100 59.100 309.800 296.800 322.700 11.800 0.100 328.600 336.200 338.400 355.700 37.600 359.400 320.100 350.300 18.700 48.000 292.800 235.400 217.500 211.100 184.800 165.700 186.900 218.100 212.700 192.700 251.100 105.100 52.800 45.600 25.800 40.100 38.400 41.200 49.300 71.000 30.500 28.400 56.600 34.200 55.000 47.400 225.000 225.000 222.500 223.200 203.000 203.900 234.400 277.600 222.700 242.000 277.500 219.400 347.900 137.500 149.000 119.900 142.200 256.700 239.900 132.900 178.900 147.800 137.700 135.000 135.000 315.000 315.000 333.300 354.400 342.400 317.000 4.900 356.800 0.600 13.600 356.200 354.200 4.300 16.300 25.400 32.200 18.100 236.700 215.100 222.600 208.900 176.000 146.300 184.700 224.600 181.900 165.600 326.100 298.600 331.600 354.200 3.000 0.500 11.200 1.100 301.200 333.600 341.300 347.100 355.500 18.800 34.800 47.900 18.900 345.400 170.200 150.200 133.600 132.500 330.900 287.800 338.000 307.900 273.300 312.800 72.900 50.200 329.200 298.100 95.100 268.500 235.900 114.900 129.100 135.500 153.200 160.600 160.100 150.100 155.200 196.900 16.600 29.700 1.100 34.200 343.300 291.200 322.700 2.900 347.700 326.200 328.800 36.700 24.900 299.700 2.600 22.200 18.000 74.200 118.000 113.700 125.600 120.300 0.400 289.600 296.100 273.100 265.100 235.600 259.100 226.200 99.300 101.000 52.100 277.700 289.700 58.300 100.100 90.500 88.500 83.500 83.100 69.200 269.100 227.100 239.300 225.700 229.300 175.500 140.100 153.600 217.400 256.300 271.500 195.300 90.300 149.000 133.500 168.300 162.100 162.500 165.000 130.300 162.600 245.900 325.100 334.100 326.200 339.700 276.500 268.500 157.300 66.100 9.900 348.700 1.300 321.300 289.500 58.200 12.200 312.000 341.100 2.900 354.500 320.100 2.500 77.600 106.800 90.500 134.000 103.900 92.000 260.400 257.000 211.000 173.400 196.800 219.300 222.900 184.000 200.600 246.000 88.900 51.800 297.500 325.200 10.200 9.800 31.800 329.200 326.700 75.300 61.200 300.900 296.100 -999.000 -999.000 -999.000 -999.000 -999.000 -999.000 -999.000 -999.000 -999.000 -999.000 -999.000 -999.000 -999.000 -999.000 -999.000 -999.000 -999.000 -999.000 -999.000 -999.000 -999.000 -999.000 -999.000 -999.000 -999.000 -999.000 -999.000 -999.000 -999.000 -999.000 -999.000 -999.000 -999.000 -999.000
-999.000 -999.000 -999.000 -999.000 -999.000 -999.000 -999.000 -999.000 -999.000 -999.000 -999.000 -999.000 164.900 154.400 142.400 128.900 5.700 359.500 8.300 353.600 29.500 99.000 82.500 93.500 69.200 72.500 74.400 77.700 37.800 315.100 257.200 272.300 253.800 172.600 324.500 276.600 283.300 83.100 90.500 69.900 276.100 283.900 264.100 258.200 234.800 79.700 83.400 123.000 94.000 135.600 126.400 44.300 299.400 311.100 311.900 283.000 178.000 186.900 148.800 129.600 141.400 347.900 333.700 351.600 0.100 352.000 355.900 8.100 13.400 46.500 4.600 291.000 320.300 20.700 324.400 299.500 312.300 340.700 9.900 30.400 28.200 325.100 317.300 346.300 26.000 52.000 323.700 258.300 144.400 181.600 239.100 255.400 227.200 310.900 277.300 322.000 340.900 16.500 11.100 353.700 8.600 36.300 22.800 20.600 32.200 43.800 58.700 62.400 77.100 32.700 30.300 36.600 45.000 45.000 225.000 225.000 190.000 188.800 220.300 223.700 238.000 272.000 186.300 291.700 156.600 127.200 133.800 119.700 235.600 144.000 150.300 188.700 162.800 141.600 135.000 135.000 315.000 318.800 324.300 335.400 354.600 334.100 310.500 353.400 359.300 349.700 3.400 18.800 12.100 2.600 32.400 38.000 12.700 14.900 25.900 252.900 214.400 218.500 201.000 228.500 325.600 356.800 351.000 1.300 344.500 291.000 278.000 307.200 348.900 8.400 356.900 2.800 337.600 334.200 46.300 305.000 288.300 106.900 70.300 50.200 33.200 25.900 21.000 34.400 76.600 82.500 273.300 292.500 13.600 346.100 268.600 295.500 349.900 37.200 48.400 318.600 130.400 195.900 234.500 139.900 120.500 151.100 149.700 158.200 158.000 149.900 340.500 351.100 350.200 350.600 0.300 37.500 341.500 272.400 308.600 340.400 342.300 325.700 343.800 57.400 32.800 308.400 357.200 105.200 99.900 107.200 111.700 112.000 125.700 73.800 305.400 309.500 319.100 6.900 266.100 280.000 271.900 160.000 90.900 100.200 33.000 269.500 296.200 89.100 110.000 100.100 90.100 89.000 68.500 336.800 317.800 324.100 308.400 204.900 220.600 188.000 159.700 183.500 209.200 244.600 247.500 196.500 147.300 137.500 154.800 156.800 132.200 166.600 177.600 176.200 258.700 325.100 332.900 311.200 345.500 26.100 312.300 276.800 281.100 23.000 69.300 5.800 346.800 317.600 322.000 64.300 305.200 258.700 322.400 266.900 82.400 186.200 149.700 151.100 137.400 147.200 133.700 132.300 119.500 337.400 351.500 335.000 350.300 264.700 226.500 207.900 201.500 220.600 195.400 162.600 148.600 210.600 233.000 58.300 103.500 353.800 304.800 17.500 95.700 71.800 272.600 290.300 -999.000 -999.000 -999.000 -999.000 -999.000 -999.000 -999.000 -999.000 -999.000 -999.000 -999.000 -999.000 -999.000 -999.000 -999.000 -999.000 -999.000 -999.000 -999.000 -999.000 -999.000 -999.000 -999.000 -999.000 -999.000 -999.000 -999.000 -999.000 -999.000 -999.000 -999.000 -999.000 -999.000 -999.000
-999.000 -999.000 -999.000 -999.000 -999.000 -999.000 -999.000 -999.000 -999.000 -999.000 40.200 88.300 122.500 39.500 66.900 18.100 17.200 13.900 253.600 154.600 118.700 115.100 119.200 84.700 74.000 85.200 82.900 90.500 129.900 299.900 279.400 281.800 279.500 1.100 307.700 284.900 286.500 97.600 74.100 76.400 318.600 284.600 279.100 290.400 297.300 45.800 132.100 74.400 99.100 121.700 70.400 264.300 294.100 313.100 292.400 353.700 150.000 184.100 336.300 70.800 3.700 324.200 326.200 351.000 340.500 340.600 7.000 13.700 40.600 69.500 37.300 250.800 241.700 222.900 245.500 289.600 313.000 330.300 35.600 21.600 87.200 328.400 304.800 335.400 58.400 69.300 353.900 313.900 11.000 345.600 305.900 7.300 357.000 317.900 317.300 353.200 345.800 28.600 45.600 12.800 27.400 23.900 4.200 20.500 27.500 15.700 34.800 51.300 58.600 133.800 42.300 21.400 30.900 45.000 45.000 225.000 225.000 204.800 207.300 233.000 257.400 204.800 230.500 159.100 152.100 162.900 124.500 132.700 189.600 191.800 165.400 155.300 145.100 135.000 315.000 315.000 331.700 323.200 321.500 350.300 23.400 328.900 306.500 336.900 326.800 353.200 38.400 1.500 1.200 31.600 42.900 75.000 37.700 7.900 1.000 25.500 50.700 307.100 303.200 330.000 346.600 347.900 353.200 9.100 356.400 272.300 221.000 234.000 230.900 347.800 14.000 10.400 332.900 311.000 54.500 120.700 219.000 234.600 61.900 50.200 49.600 39.600 72.200 81.900 68.900 320.500 291.300 311.300 32.900 323.200 288.300 294.800 45.500 49.900 129.300 112.900 142.500 172.900 202.900 166.300 155.400 116.400 106.200 137.500 353.800 335.400 325.900 337.900 354.900 15.800 37.800 53.200 160.000 283.200 274.300 313.500 352.800 327.200 15.200 79.400 5.100 320.500 64.900 76.800 108.800 114.500 118.300 103.300 120.500 0.900 292.100 308.200 359.000 45.000 296.100 267.000 252.500 114.400 107.800 107.600 281.400 255.800 74.900 123.300 129.300 128.000 111.900 43.900 58.100 54.700 326.000 318.200 345.600 6.100 45.700 140.300 142.100 220.900 237.400 225.600 233.400 188.400 154.100 143.800 157.700 177.700 163.200 172.600 214.600 315.400 312.600 322.900 338.200 325.000 3.900 12.400 301.900 335.700 323.500 26.800 3.800 285.100 129.200 99.000 202.000 127.900 190.100 228.500 221.500 184.000 142.200 181.500 176.100 136.100 125.400 148.200 149.600 124.800 308.900 318.500 24.600 352.100 331.700 52.700 29.900 236.400 196.300 178.000 209.300 180.700 176.700 225.500 256.100 178.300 34.600 200.200 166.600 67.600 103.300 114.700 286.100 291.300 -999.000 -999.000 -999.000 -999.000 -999.000 -999.000 -999.000 -999.000 -999.000 -999.000 -999.000 -999.000 -999.000 -999.000 -999.000 -999.000 -999.000 -999.000 -999.000 -999.000 -999.000 -999.000 -999.000 -999.000 -999.000 -999.000 -999.000 -999.000 -999.000 -999.000 -999.000 -999.000 -999.000 -999.000
-999.000 -999.000 -999.000 -999.000 -999.000 -999.000 -999.000 -999.000 23.800 5.400 28.000 86.300 5.300 11.500 19.800 0.900 285.500 291.900 70.900 85.600 87.800 89.100 98.000 85.700 102.200 121.600 99.200 115.800 156.700 290.200 290.600 295.700 303.100 358.300 307.200 287.000 268.600 100.500 80.300 257.800 308.100 294.200 303.300 303.100 5.400 106.200 121.000 103.900 121.000 74.600 353.700 289.400 301.100 300.100 30.300 45.200 130.100 332.900 352.600 4.900 356.400 317.900 322.800 346.600 358.000 334.400 359.900 32.400 37.000 57.600 105.400 240.900 223.300 262.200 283.300 298.100 303.100 345.200 67.000 33.900 331.300 336.400 288.900 223.500 114.200 76.200 270.700 316.100 58.300 18.400 295.500 304.600 341.400 294.200 333.000 62.900 195.500 205.500 164.100 161.300 216.500 187.700 70.800 15.900 15.200 12.900 18.700 28.700 37.200 42.200 55.400 58.500 19.900 5.200 35.300 45.000 44.900 225.000 225.000 263.300 240.800 232.000 179.400 156.700 174.900 151.500 113.500 175.400 214.300 167.900 143.700 137.400 135.100 315.000 318.300 328.800 335.600 323.000 321.800 11.000 28.200 301.500 292.700 321.800 352.900 3.300 55.200 49.200 117.500 128.600 103.500 95.100 312.500 4.800 60.500 50.600 27.000 304.800 299.900 290.200 314.900 340.000 321.500 358.400 34.300 21.900 273.900 251.400 263.100 312.900 341.300 343.900 5.000 322.800 65.500 109.300 186.500 199.500 194.300 33.800 57.700 79.100 112.700 99.700 82.200 296.000 288.900 300.500 41.200 13.600 293.600 284.400 168.300 101.900 139.000 139.200 127.500 162.400 192.300 162.900 153.800 133.200 119.100 21.400 344.300 326.200 311.900 302.800 325.900 13.200 69.000 64.200 138.800 298.800 246.800 272.800 270.500 10.700 63.200 73.500 123.500 52.700 126.900 121.900 118.200 123.200 129.700 10.400 91.100 4.500 289.900 291.400 353.300 54.100 346.800 294.100 260.400 93.200 115.200 95.100 216.200 281.200 217.400 99.500 93.900 85.800 30.200 19.900 34.800 38.300 313.400 293.200 347.400 30.300 8.600 350.000 99.900 232.600 187.900 206.300 212.300 185.300 164.100 162.600 174.300 172.900 168.700 157.000 8.500 285.500 285.000 307.500 304.400 280.800 349.800 92.300 289.100 275.200 236.700 139.400 159.700 226.300 210.900 139.000 171.800 152.700 161.600 255.500 217.600 279.500 132.500 105.500 144.600 170.700 124.600 121.100 95.600 342.600 319.100 306.400 93.800 339.500 315.400 78.600 66.200 251.100 199.400 218.600 209.200 153.400 170.300 216.200 229.500 191.000 217.500 232.200 191.500 113.000 83.600 166.100 284.200 234.700 225.100 -999.000 -999.000 -999.000 -999.000 -999.000 -999.000 -999.000 -999.000 -999.000 -999.000 -999.000 -999.000 -999.000 -999.000 -999.000 -999.000 -999.000 -999.000 -999.000 -999.000 -999.000 -999.000 -999.000 -999.000 -999.000 -999.000 -999.000 -999.000 -999.000 -999.000 -999.000 -999.000 -999.000
-999.000 -999.000 -999.000 -999.000 -999.000 -999.000 -999.000 167.600 95.900 132.700 124.800 102.900 345.800 244.300 357.700 124.000 4.400 14.800 45.500 59.300 80.400 93.200 85.000 102.000 117.600 115.800 100.400 109.600 326.600 301.900 277.100 302.000 277.200 354.700 297.200 276.300 152.800 86.000 135.600 326.000 331.800 275.800 299.600 288.000 57.800 81.400 117.600 109.400 135.200 37.900 293.600 312.300 307.900 281.200 69.900 95.300 336.500 299.900 330.500 3.200 296.300 311.000 325.100 341.400 334.200 347.000 66.700 90.900 106.900 110.300 172.800 281.700 299.800 320.500 307.800 299.900 280.800 355.400 82.200 39.100 343.500 309.600 278.500 69.700 105.800 75.000 274.100 292.900 36.100 164.400 311.300 278.700 10.900 268.500 279.700 176.000 134.400 112.500 166.800 164.200 233.700 260.600 264.200 80.100 63.900 74.600 32.600 36.600 23.500 6.500 47.100 42.700 21.000 49.500 3.100 3.000 45.000 45.000 225.000 225.000 221.100 196.900 171.600 161.000 179.800 167.500 156.000 202.300 183.700 139.200 132.800 318.300 323.200 329.400 324.500 321.800 339.100 315.600 315.500 19.300 17.000 15.200 305.300 283.500 223.400 159.900 128.200 151.800 146.400 135.900 145.500 353.300 301.200 39.900 82.300 57.200 64.600 80.000 280.200 236.300 230.400 213.700 231.100 297.600 45.400 31.200 5.000 292.600 283.600 248.000 127.600 143.500 201.100 222.400 102.800 81.200 83.800 179.800 211.900 185.100 132.400 117.200 90.700 90.700 50.800 281.800 275.700 293.000 7.800 37.800 295.300 227.200 137.500 139.700 115.300 152.800 145.100 156.800 177.000 188.900 190.800 123.700 88.800 55.500 333.800 253.200 258.600 271.300 290.800 57.200 55.800 38.000 31.200 244.100 255.700 233.400 222.500 208.100 111.600 97.800 146.000 172.400 155.700 147.500 139.400 161.400 14.100 346.800 36.100 21.400 276.600 260.600 313.000 63.300 3.600 297.600 300.400 102.700 97.900 359.200 272.200 336.100 71.100 49.400 36.300 7.000 347.300 355.700 30.900 52.700 302.000 286.600 298.400 56.100 31.100 24.800 27.700 0.300 83.600 170.400 201.300 189.200 159.800 169.800 207.300 307.700 343.600 356.300 350.200 241.000 231.700 216.600 200.900 194.000 183.900 221.700 271.200 126.400 170.100 163.400 177.700 250.400 37.000 64.500 334.900 55.700 69.700 151.800 212.000 201.400 167.200 213.900 119.200 107.900 117.700 37.300 315.700 320.900 304.400 287.800 65.800 237.700 305.700 69.100 85.200 348.700 283.100 318.500 331.200 0.800 3.000 311.000 211.600 172.500 187.500 230.600 161.700 139.900 107.200 76.800 257.000 237.100 226.400 -999.000 -999.000 -999.000 -999.000 -999.000 -999.000 -999.000 -999.000 -999.000 -999.000 -999.000 -999.000 -999.000 -999.000 -999.000 -999.000 -999.000 -999.000 -999.000 -999.000 -999.000 -999.000 -999.000 -999.000 -999.000 -999.000 -999.000 -999.000 -999.000 -999.000 -999.000 -999.000 -999.000
-999.000 -999.000 -999.000 -999.000 -999.000 -999.000 86.000 111.600 144.000 156.800 156.900 134.100 219.600 271.500 116.200 345.800 300.500 75.700 108.900 119.000 123.100 124.700 107.600 120.300 107.700 108.900 101.600 83.200 318.700 288.700 284.400 303.000 271.400 329.800 274.500 259.200 72.200 69.600 45.300 326.100 302.400 280.900 268.800 261.600 109.200 108.500 105.900 133.800 51.300 291.600 321.900 330.300 311.900 326.500 82.700 78.700 284.400 252.000 258.000 310.000 287.500 296.400 284.700 308.000 146.000 196.100 147.500 138.200 136.900 134.700 140.300 301.300 303.700 312.000 305.700 293.900 301.900 15.900 56.500 8.100 325.500 22.500 49.400 98.700 93.100 253.000 286.900 292.700 52.300 71.900 304.000 319.300 347.500 301.900 91.800 104.300 134.000 160.600 182.200 179.100 205.600 226.500 184.200 175.400 183.500 181.100 160.200 134.500 111.400 96.900 89.100 355.400 354.300 336.000 350.200 46.000 48.700 45.000 0.000 225.000 225.000 188.700 163.000 169.000 194.300 140.500 142.900 179.000 52.900 7.800 317.900 317.400 332.400 316.200 315.400 322.800 340.100 310.900 331.600 28.900 19.900 348.100 313.200 286.900 204.400 157.900 114.500 129.500 152.000 142.200 69.900 3.700 306.700 123.700 78.800 50.300 325.700 28.200 58.000 229.800 216.500 206.800 224.200 256.900 245.100 43.300 32.000 322.600 286.600 295.300 174.700 122.000 152.900 197.000 202.400 82.900 62.500 76.800 202.200 184.200 158.000 144.600 150.700 127.900 155.300 271.600 274.200 272.000 62.700 134.300 257.800 191.800 119.600 152.100 115.800 128.000 104.900 29.200 23.600 354.300 352.700 8.300 13.900 33.000 323.600 253.000 289.400 274.400 315.000 54.700 28.000 10.400 26.900 66.800 306.500 247.800 249.100 166.700 116.800 217.100 135.400 104.300 122.400 126.700 95.300 322.100 349.300 332.100 35.800 100.600 271.200 248.800 264.900 343.500 15.600 4.000 80.800 119.200 58.700 304.600 340.400 354.300 331.000 1.600 19.600 17.400 10.200 15.400 43.400 83.800 9.100 281.600 292.300 19.000 24.800 16.200 36.900 38.400 37.800 21.400 302.400 317.400 6.600 350.000 348.600 0.600 336.900 352.700 9.100 303.200 220.500 217.300 232.500 230.500 172.700 126.100 168.200 199.200 174.900 163.300 234.600 261.500 17.600 46.800 328.800 2.900 61.900 49.600 226.200 164.700 172.600 162.100 169.400 114.100 114.600 270.500 297.100 330.300 340.700 316.900 48.300 106.900 309.400 77.100 73.100 66.700 321.500 267.700 319.300 1.500 359.500 359.800 5.200 298.000 203.200 171.800 184.200 171.600 164.600 246.400 248.300 288.000 296.300 346.200 -999.000 -999.000 76.200 -999.000 -999.000 -999.000 -999.000 -999.000 -999.000 -999.000 -999.000 -999.000 -999.000 -999.000 -999.000 -999.000 -999.000 -999.000 -999.000 -999.000 -999.000 -999.000 -999.000 -999.000 -999.000 -999.000 -999.000 -999.000 -999.000 -999.000 -999.000 -999.000
